%YAML 1.0
---
depth: !!opencv-matrix
   rows: 30
   cols: 544
   dt: w
   data: [ 4238, 4238, 4238, 4238, 4238, 4238, 4238, 4238, 4238, 4238, 4238, 4238, 4238, 4238, 4238, 4238, 4291, 4291, 4291, 4291, 4291, 4291, 4291, 4291, 4291, 4291, 4291, 4291, 4291, 4346, 4346, 4346, 4346, 4402, 4402, 4402, 4402, 4402, 4402, 4402, 4402, 4346, 4346, 4346, 4291, 4291, 4291, 4291, 4291, 4291, 4238, 4238, 4238, 4238, 4238, 4238, 4238, 4186, 4186, 4186, 4136, 4136, 0, 0, 0, 0, 0, 0, 0, 0, 0, 0, 0, 0, 0, 0, 0, 0, 0, 0, 2064, 2052, 2052, 2052, 2052, 2040, 2028, 2028, 2028, 2028, 2016, 2016, 2016, 2016, 2004, 1992, 1992, 1981, 1981, 1981, 1981, 1981, 1981, 1981, 1981, 1981, 1981, 1981, 1981, 1981, 1969, 1969, 1969, 1969, 1958, 1958, 1947, 1958, 1958, 1947, 1947, 1958, 1958, 1958, 1947, 1947, 1936, 1936, 1936, 1936, 1925, 1925, 1925, 1914, 1914, 1925, 1925, 1925, 1936, 1958, 1981, 1981, 1992, 2004, 2004, 2016, 2016, 2028, 2040, 2040, 2052, 2052, 2052, 2052, 2052, 2052, 2052, 2052, 2052, 2064, 2064, 2064, 2064, 2077, 2077, 2077, 2089, 2102, 2102, 2115, 2129, 2129, 2129, 2142, 2142, 2155, 2155, 2155, 2155, 2155, 2155, 2183, 0, 3771, 3730, 3730, 3730, 3730, 3690, 3730, 3730, 3730, 3730, 3730, 3771, 3771, 3771, 3771, 3771, 3771, 3771, 3771, 3771, 3771, 3771, 3771, 3730, 3730, 3730, 3690, 3690, 3690, 3690, 3650, 3650, 3650, 3650, 3650, 3612, 3612, 3612, 3574, 3537, 3537, 3537, 3537, 3537, 3537, 3537, 3574, 3574, 3574, 3537, 3537, 3537, 3537, 3537, 3537, 3537, 3537, 3501, 3501, 3501, 3501, 3501, 3501, 3465, 3465, 3465, 3465, 3431, 3431, 3431, 3397, 3397, 3397, 3397, 3397, 3397, 3397, 3397, 3397, 3397, 3363, 3363, 3363, 3363, 3363, 3363, 3330, 3363, 0, 0, 0, 0, 0, 0, 0, 0, 0, 0, 1958, 1958, 1958, 1947, 1947, 1947, 1947, 1936, 1936, 1936, 1936, 1936, 1936, 1936, 1936, 1936, 1947, 0, 0, 3147, 3147, 3147, 3147, 3147, 3147, 3118, 3118, 3118, 3118, 3118, 3118, 3118, 3118, 3090, 3090, 3090, 3090, 3090, 3062, 3062, 3062, 3062, 3062, 3035, 3035, 3035, 3035, 3035, 3035, 3008, 3008, 3008, 3008, 3008, 3008, 3008, 3008, 3008, 3008, 3008, 2982, 2982, 2982, 2982, 2982, 2956, 2956, 2956, 2931, 2931, 2931, 2931, 2906, 2906, 2906, 2906, 2906, 2906, 2906, 2906, 2882, 2882, 2882, 2882, 2882, 2882, 2882, 2882, 2882, 2882, 2882, 2858, 2858, 2834, 2834, 2834, 2834, 2834, 2811, 2811, 2811, 2811, 2811, 2811, 2811, 2788, 2788, 2788, 2765, 2765, 2765, 2765, 2743, 2743, 2743, 2743, 2743, 2743, 2721, 2721, 2721, 2721, 2721, 2721, 2721, 2721, 2721, 2721, 2721, 2721, 2700, 2700, 2700, 2679, 2679, 2679, 2679, 2679, 2679, 2658, 2658, 2637, 2637, 2617, 2597, 2578, 2578, 2558, 2558, 2539, 2521, 0, 2064, 2064, 2064, 2064, 2064, 2064, 2064, 2064, 2064, 2064, 2211, 2578, 2558, 2558, 2558, 2558, 2558, 2539, 2539, 2539, 2521, 2521, 2502, 2502, 2502, 2502, 2484, 2502, 2502, 2502, 2484, 2484, 2484, 2466, 2466, 2466, 2484, 2484, 2466, 2448, 2448, 2448, 2448, 2431, 2448, 2448, 2448, 2431, 2431, 2448, 2448, 2448, 2448, 2431, 2431, 2431, 2431, 2431, 2431, 2414, 2414, 2397, 2397, 2397, 2397, 2414, 2397, 2397, 2397, 2397, 2397, 2397, 2380, 2380, 2380, 2380, 2380, 2364, 2364, 2380, 2380, 2364, 2364, 2364, 2364, 2364, 2364, 2348, 2348, 2348, 2348, 2348, 2348, 2348, 2348, 2348, 2348, 2332, 2332, 2332, 2332, 2332, 2332, 2316, 2316, 2316, 2316, 2300, 2300, 2300, 2300,
       4238, 4238, 4238, 4238, 4238, 4238, 4238, 4238, 4238, 4238, 4238, 4238, 4238, 4238, 4238, 4238, 4291, 4291, 4291, 4291, 4291, 4291, 4291, 4291, 4291, 4291, 4291, 4291, 4291, 4346, 4346, 4346, 4346, 4402, 4402, 4402, 4402, 4402, 4402, 4402, 4346, 4346, 4346, 4346, 4291, 4291, 4291, 4291, 4291, 4291, 4238, 4238, 4238, 4238, 4238, 4238, 4186, 4186, 4186, 4186, 4186, 4186, 0, 0, 0, 0, 0, 0, 0, 0, 0, 0, 0, 0, 0, 0, 0, 0, 0, 0, 2064, 2052, 2052, 2052, 2040, 2040, 2028, 2028, 2028, 2016, 2016, 2016, 2016, 2016, 2004, 1992, 1992, 1992, 1981, 1981, 1981, 1981, 1981, 1981, 1981, 1981, 1981, 1981, 1981, 1981, 1969, 1969, 1969, 1969, 1958, 1958, 1947, 1947, 1947, 1947, 1947, 1947, 1958, 1947, 1947, 1947, 1936, 1936, 1936, 1936, 1925, 1925, 1925, 1914, 1914, 1914, 1925, 1925, 1936, 1958, 1981, 1981, 1992, 2004, 2004, 2016, 2016, 2028, 2028, 2040, 2052, 2052, 2052, 2052, 2052, 2052, 2052, 2052, 2052, 2064, 2064, 2064, 2064, 2064, 2077, 2077, 2077, 2089, 2102, 2115, 2115, 2129, 2129, 2142, 2142, 2155, 2155, 2155, 2155, 2155, 2169, 2169, 2197, 3730, 3730, 3730, 3730, 3730, 3730, 3730, 3730, 3730, 3730, 3730, 3771, 3771, 3771, 3771, 3771, 3771, 3771, 3771, 3771, 3771, 3771, 3730, 3730, 3730, 3730, 3730, 3690, 3690, 3690, 3650, 3650, 3650, 3650, 3650, 3612, 3612, 3612, 3574, 3537, 3537, 3537, 3537, 3537, 3537, 3537, 3537, 3574, 3574, 3537, 3537, 3537, 3537, 3537, 3537, 3501, 3501, 3501, 3501, 3501, 3501, 3501, 3501, 3465, 3465, 3465, 3465, 3431, 3431, 3431, 3431, 3431, 3397, 3397, 3397, 3397, 3397, 3397, 3397, 3363, 3363, 3363, 3363, 3363, 3363, 3363, 3363, 3363, 3363, 3363, 0, 0, 0, 0, 0, 0, 0, 0, 1958, 1958, 1947, 1947, 1947, 1947, 1936, 1936, 1936, 1936, 1936, 1936, 1936, 1936, 1936, 1936, 1936, 0, 0, 3147, 3147, 3147, 3147, 3147, 3147, 3118, 3118, 3118, 3118, 3118, 3118, 3118, 3118, 3118, 3090, 3090, 3090, 3090, 3062, 3062, 3062, 3062, 3062, 3035, 3035, 3035, 3035, 3035, 3035, 3008, 3008, 3008, 3008, 3008, 3008, 3008, 3008, 2982, 2982, 2982, 2982, 2982, 2982, 2982, 2982, 2956, 2956, 2956, 2931, 2931, 2931, 2931, 2906, 2906, 2906, 2906, 2906, 2906, 2906, 2882, 2882, 2882, 2882, 2882, 2882, 2882, 2882, 2882, 2882, 2882, 2858, 2858, 2834, 2834, 2834, 2834, 2834, 2811, 2811, 2811, 2811, 2811, 2811, 2811, 2811, 2788, 2788, 2788, 2788, 2765, 2765, 2765, 2743, 2743, 2743, 2743, 2743, 2743, 2721, 2721, 2721, 2721, 2721, 2721, 2721, 2721, 2700, 2700, 2721, 2721, 2700, 2700, 2700, 2679, 2679, 2679, 2679, 2679, 2679, 2658, 2658, 2637, 2637, 2617, 2617, 2578, 2578, 2558, 2558, 2539, 2521, 0, 2115, 2064, 2064, 2064, 2064, 2064, 2064, 2064, 2064, 2064, 2197, 2558, 2558, 2558, 2558, 2558, 2558, 2539, 2539, 2539, 2521, 2521, 2502, 2502, 2502, 2502, 2484, 2502, 2502, 2502, 2484, 2484, 2484, 2466, 2466, 2466, 2484, 2466, 2466, 2448, 2448, 2466, 2448, 2448, 2466, 2448, 2448, 2431, 2448, 2448, 2448, 2448, 2448, 2431, 2431, 2431, 2431, 2431, 2431, 2414, 2414, 2414, 2414, 2414, 2414, 2414, 2414, 2397, 2397, 2380, 2397, 2380, 2380, 2380, 2380, 2380, 2364, 2364, 2364, 2364, 2364, 2364, 2364, 2364, 2364, 2364, 2348, 2348, 2348, 2348, 2348, 2348, 2348, 2348, 2348, 2348, 2348, 2332, 2332, 2332, 2332, 2332, 2332, 2316, 2316, 2316, 2316, 2316, 2300, 2300, 2300,
       4238, 4238, 4238, 4238, 4238, 4238, 4238, 4238, 4238, 4238, 4238, 4238, 4238, 4238, 4238, 4238, 4238, 4238, 4291, 4291, 4291, 4291, 4291, 4238, 4291, 4291, 4291, 4291, 4291, 4346, 4346, 4346, 4346, 4346, 4346, 4346, 4402, 4402, 4402, 4402, 4346, 4346, 4291, 4291, 4291, 4291, 4291, 4291, 4291, 4291, 4238, 4238, 4238, 4238, 4238, 4238, 4186, 4186, 4186, 4186, 4186, 4186, 0, 0, 0, 0, 0, 0, 0, 0, 0, 0, 0, 0, 0, 0, 0, 0, 0, 0, 2064, 2064, 2052, 2052, 2052, 2040, 2028, 2028, 2028, 2028, 2016, 2016, 2016, 2004, 2004, 1992, 1992, 1992, 1981, 1981, 1981, 1981, 1981, 1981, 1981, 1981, 1981, 1981, 1969, 1969, 1969, 1969, 1969, 1969, 1958, 1958, 1947, 1947, 1947, 1947, 1947, 1947, 1947, 1947, 1947, 1936, 1936, 1936, 1936, 1936, 1925, 1925, 1925, 1914, 1914, 1925, 1925, 1925, 1936, 1958, 1969, 1981, 1992, 2004, 2004, 2016, 2016, 2028, 2028, 2040, 2052, 2052, 2052, 2052, 2052, 2052, 2052, 2052, 2052, 2064, 2064, 2052, 2064, 2064, 2064, 2077, 2077, 2089, 2102, 2115, 2115, 2129, 2129, 2129, 2142, 2155, 2155, 2155, 2155, 2155, 2155, 2169, 2169, 0, 3690, 3730, 3730, 3730, 3730, 3730, 3730, 3730, 3730, 3730, 3771, 3771, 3771, 3771, 3771, 3771, 3771, 3771, 3771, 3771, 3771, 3730, 3730, 3730, 3730, 3730, 3690, 3690, 3690, 3690, 3650, 3650, 3650, 3650, 3612, 3612, 3612, 3612, 3537, 3537, 3537, 3537, 3537, 3537, 3537, 3537, 3574, 3537, 3537, 3537, 3537, 3537, 3537, 3537, 3501, 3501, 3501, 3501, 3501, 3501, 3501, 3501, 3465, 3465, 3465, 3465, 3465, 3431, 3431, 3431, 3431, 3431, 3397, 3397, 3397, 3397, 3397, 3397, 3363, 3363, 3363, 3363, 3363, 3363, 3363, 3363, 3363, 3363, 3363, 0, 0, 0, 0, 0, 0, 0, 0, 1958, 1947, 1947, 1947, 1947, 1936, 1936, 1936, 1936, 1936, 1936, 1936, 1936, 1936, 1936, 1936, 1936, 0, 0, 3147, 3147, 3147, 3147, 3147, 3147, 3118, 3118, 3118, 3118, 3118, 3118, 3118, 3118, 3118, 3090, 3090, 3090, 3090, 3062, 3062, 3062, 3062, 3035, 3035, 3035, 3035, 3035, 3035, 3035, 3008, 3008, 3008, 3008, 3008, 3008, 3008, 3008, 2982, 2982, 2982, 2982, 2982, 2982, 2982, 2956, 2956, 2956, 2956, 2931, 2931, 2931, 2931, 2906, 2906, 2906, 2906, 2906, 2906, 2882, 2882, 2882, 2882, 2882, 2882, 2882, 2882, 2882, 2882, 2882, 2858, 2858, 2858, 2834, 2834, 2834, 2834, 2834, 2811, 2811, 2811, 2811, 2811, 2811, 2811, 2811, 2788, 2788, 2788, 2788, 2765, 2765, 2765, 2743, 2743, 2743, 2743, 2743, 2743, 2743, 2743, 2743, 2721, 2721, 2721, 2721, 2721, 2700, 2700, 2700, 2700, 2700, 2700, 2679, 2679, 2679, 2679, 2679, 2679, 2679, 2658, 2658, 2637, 2637, 2617, 2617, 2578, 2578, 2558, 2558, 2539, 2521, 2169, 2064, 2064, 2064, 2064, 2064, 2064, 2064, 2064, 2064, 2064, 2155, 0, 2558, 2558, 2558, 2558, 2558, 2558, 2558, 2539, 2521, 2521, 2502, 2502, 2502, 2502, 2502, 2502, 2502, 2502, 2484, 2484, 2484, 2466, 2466, 2466, 2484, 2466, 2466, 2466, 2466, 2466, 2448, 2448, 2466, 2448, 2448, 2431, 2448, 2448, 2448, 2431, 2431, 2431, 2431, 2431, 2431, 2431, 2431, 2414, 2414, 2414, 2414, 2414, 2414, 2414, 2414, 2414, 2397, 2397, 2397, 2397, 2380, 2380, 2380, 2380, 2364, 2364, 2364, 2364, 2364, 2364, 2364, 2364, 2348, 2348, 2348, 2348, 2348, 2348, 2348, 2348, 2348, 2348, 2348, 2348, 2332, 2332, 2332, 2332, 2332, 2332, 2332, 2316, 2316, 2316, 2316, 2316, 2316, 2300, 2300,
       4238, 4238, 4238, 4238, 4238, 4238, 4238, 4238, 4238, 4238, 4238, 4238, 4238, 4238, 4238, 4238, 4291, 4291, 4291, 4291, 4291, 4291, 4291, 4238, 4291, 4291, 4291, 4291, 4291, 4291, 4346, 4346, 4346, 4346, 4346, 4346, 4402, 4402, 4346, 4346, 4346, 4346, 4291, 4291, 4291, 4291, 4291, 4291, 4291, 4238, 4238, 4238, 4238, 4238, 4238, 4238, 4186, 4186, 4186, 4186, 4186, 4186, 0, 0, 0, 0, 0, 0, 0, 0, 0, 0, 0, 0, 0, 0, 0, 0, 0, 2064, 2064, 2064, 2064, 2052, 2052, 2040, 2028, 2028, 2028, 2028, 2016, 2016, 2004, 2004, 2004, 1992, 1992, 1992, 1981, 1992, 1992, 1981, 1992, 1981, 1981, 1981, 1981, 1981, 1981, 1981, 1969, 1969, 1969, 1958, 1958, 1958, 1947, 1947, 1947, 1947, 1947, 1947, 1947, 1947, 1947, 1936, 1936, 1936, 1936, 1936, 1925, 1925, 1925, 1914, 1914, 1925, 1925, 1925, 1936, 1947, 1969, 1981, 1981, 1992, 2004, 2004, 2016, 2016, 2028, 2028, 2040, 2052, 2052, 2052, 2052, 2052, 2052, 2052, 2052, 2064, 2064, 2064, 2064, 2064, 2064, 2077, 2077, 2089, 2102, 2115, 2115, 2129, 2129, 2129, 2142, 2142, 2155, 2155, 2155, 2155, 2155, 2155, 2169, 0, 3650, 3730, 3730, 3730, 3730, 3730, 3730, 3730, 3730, 3771, 3771, 3771, 3771, 3771, 3771, 3771, 3771, 3771, 3771, 3771, 3771, 3730, 3730, 3730, 3730, 3730, 3690, 3690, 3690, 3690, 3690, 3650, 3650, 3650, 3650, 3612, 3612, 3612, 3537, 3537, 3537, 3537, 3537, 3537, 3537, 3537, 3537, 3537, 3537, 3537, 3537, 3537, 3537, 3537, 3501, 3501, 3501, 3501, 3501, 3501, 3501, 3501, 3501, 3465, 3465, 3465, 3465, 3431, 3431, 3431, 3431, 3431, 3431, 3397, 3397, 3397, 3397, 3397, 3363, 3363, 3363, 3363, 3363, 3363, 3363, 3363, 3363, 3363, 0, 0, 0, 0, 0, 0, 0, 0, 0, 0, 0, 1947, 1947, 1947, 1936, 1936, 1936, 1936, 1936, 1925, 1936, 1936, 1936, 1936, 1936, 0, 0, 0, 3147, 3147, 3147, 3147, 3147, 3147, 3118, 3118, 3118, 3118, 3118, 3118, 3118, 3118, 3118, 3090, 3090, 3090, 3090, 3062, 3062, 3062, 3062, 3035, 3035, 3035, 3035, 3035, 3035, 3035, 3008, 3008, 3008, 3008, 3008, 3008, 3008, 3008, 2982, 2982, 2982, 2982, 2982, 2956, 2956, 2956, 2956, 2956, 2956, 2931, 2931, 2931, 2931, 2906, 2906, 2906, 2906, 2906, 2906, 2906, 2882, 2882, 2882, 2882, 2882, 2882, 2882, 2882, 2882, 2882, 2858, 2858, 2858, 2834, 2834, 2834, 2834, 2834, 2811, 2811, 2811, 2811, 2811, 2811, 2811, 2788, 2788, 2788, 2788, 2788, 2765, 2765, 2765, 2743, 2743, 2743, 2743, 2743, 2743, 2721, 2743, 2743, 2743, 2721, 2721, 2721, 2721, 2721, 2700, 2721, 2721, 2700, 2700, 2679, 2679, 2679, 2679, 2679, 2679, 2679, 2658, 2658, 2637, 2637, 2637, 2617, 2597, 0, 0, 2539, 2521, 2502, 2169, 2064, 2064, 2064, 2064, 2064, 2064, 2064, 2064, 2064, 2064, 2115, 0, 2558, 2558, 2558, 2558, 2558, 2558, 2558, 2558, 2539, 2521, 2521, 2502, 2502, 2502, 2502, 2502, 2502, 0, 0, 0, 0, 2466, 2466, 2466, 2466, 2466, 2466, 2448, 2448, 2448, 2448, 2431, 2448, 2448, 2448, 2431, 2431, 2448, 2448, 2431, 2431, 2431, 2431, 2431, 2431, 2431, 2414, 2414, 0, 0, 2414, 2414, 2414, 2414, 2414, 2414, 2397, 2380, 2397, 2397, 2380, 2380, 2380, 2380, 2380, 2364, 2364, 2364, 2364, 2364, 2364, 2364, 2348, 2348, 2348, 2348, 2348, 2348, 2348, 2348, 2348, 2348, 2348, 2348, 2332, 2332, 2332, 2332, 2332, 2332, 2332, 2316, 2316, 2316, 2316, 2316, 2316, 2316, 2300,
       4238, 4238, 4238, 4238, 4238, 4238, 4238, 4238, 4238, 4238, 4238, 4238, 4238, 4238, 4238, 4238, 4291, 4291, 4291, 4291, 4291, 4291, 4291, 4291, 4291, 4291, 4291, 4291, 4291, 4291, 4346, 4346, 4346, 4346, 4346, 4346, 4346, 4346, 4346, 4346, 4346, 4346, 4291, 4291, 4291, 4346, 4291, 4291, 4291, 4238, 4238, 4238, 4238, 4238, 4238, 4186, 4186, 4186, 4186, 4186, 4186, 4186, 0, 0, 0, 0, 0, 0, 0, 0, 0, 0, 0, 0, 0, 0, 0, 0, 0, 2064, 2064, 2064, 2064, 2052, 2052, 2040, 2028, 2028, 2028, 2016, 2016, 2016, 2004, 2004, 2004, 1992, 2004, 1992, 1992, 1992, 1992, 1992, 1992, 1981, 1981, 1981, 1981, 1981, 1981, 1981, 1969, 1969, 1969, 1969, 1958, 1958, 1947, 1947, 1947, 1947, 1947, 1947, 1947, 1947, 1947, 1936, 1936, 1936, 1936, 1936, 1925, 1925, 1925, 1914, 1914, 1925, 1925, 1925, 1936, 1947, 1969, 1981, 1981, 1992, 1992, 2004, 2004, 2016, 2016, 2028, 2040, 2040, 2052, 2052, 2052, 2052, 2052, 2052, 2052, 2064, 2064, 2064, 2064, 2064, 2064, 2064, 2077, 2077, 2089, 2102, 2115, 2115, 2129, 2129, 2142, 2142, 2142, 2155, 2155, 2155, 2155, 2155, 0, 0, 3690, 3730, 3730, 3730, 3730, 3730, 3730, 3730, 3730, 3771, 3771, 3771, 3771, 3771, 3771, 3771, 3771, 3771, 3771, 3771, 3771, 3730, 3730, 3730, 3730, 3730, 3690, 3690, 3690, 3690, 3690, 3650, 3650, 3650, 3612, 3612, 3612, 3574, 3537, 3537, 3537, 3537, 3537, 3537, 3537, 3537, 3537, 3537, 3537, 3537, 3537, 3537, 3537, 3537, 3501, 3501, 3501, 3501, 3501, 3501, 3501, 3501, 3501, 3501, 3501, 3465, 3465, 3465, 3431, 3431, 3431, 3431, 3431, 3397, 3397, 3397, 3397, 3363, 3363, 3363, 3363, 3363, 3363, 3363, 3363, 3363, 3363, 3363, 0, 0, 0, 0, 0, 0, 0, 0, 0, 0, 0, 1947, 1947, 1947, 1936, 1936, 1936, 1936, 1936, 1925, 1936, 1936, 1925, 1925, 1925, 0, 0, 0, 0, 3147, 3147, 3147, 3147, 3147, 3118, 3118, 3118, 3118, 3118, 3118, 3118, 3118, 3118, 3090, 3090, 3090, 3090, 3062, 3062, 3062, 3062, 3062, 3035, 3035, 3035, 3035, 3035, 3008, 3008, 3008, 3008, 3008, 3008, 3008, 3008, 3008, 2982, 2982, 2982, 2982, 2982, 2956, 2956, 2956, 2956, 2956, 2956, 2931, 2931, 2931, 2931, 2906, 2906, 2906, 2906, 2906, 2906, 2906, 2906, 2882, 2882, 2882, 2882, 2882, 2882, 2882, 2882, 2882, 2858, 2858, 2858, 2834, 2834, 2834, 2834, 2811, 2811, 2811, 2811, 2811, 2811, 2811, 2788, 2788, 2788, 2788, 2788, 2788, 2765, 2765, 2765, 2743, 2743, 2743, 2743, 2743, 2743, 2743, 2743, 2743, 2743, 2721, 2721, 2721, 2721, 2721, 2700, 2721, 2721, 2700, 2700, 2679, 2679, 2679, 2679, 2679, 2679, 2679, 2658, 2658, 2637, 2637, 2637, 2617, 2597, 0, 0, 0, 2502, 0, 2115, 2064, 2052, 2064, 2064, 2064, 2064, 2064, 2064, 2064, 2064, 2064, 0, 2578, 2578, 2558, 2558, 2558, 2558, 2558, 2558, 2539, 2521, 2521, 2502, 2502, 2502, 2502, 2502, 2502, 0, 0, 0, 0, 2466, 2466, 2448, 2466, 2448, 2448, 2431, 2431, 2448, 2431, 2431, 2448, 2448, 2431, 2431, 2431, 2431, 2431, 2431, 2431, 2431, 2431, 2431, 0, 0, 2431, 2414, 0, 0, 2414, 2414, 2414, 2414, 2414, 2414, 2397, 2397, 2397, 2397, 2380, 2380, 2380, 2380, 2380, 2364, 2364, 2364, 2364, 2364, 2364, 2364, 2348, 2348, 2348, 2348, 2348, 2348, 2348, 2348, 2348, 2348, 2348, 2348, 2332, 2332, 2332, 2332, 2332, 2332, 2316, 2316, 2316, 2316, 2316, 2316, 2316, 2316, 2300,
       4238, 4238, 4238, 4238, 4238, 4238, 4238, 4238, 4238, 4238, 4238, 4238, 4238, 4238, 4238, 4238, 4291, 4291, 4291, 4291, 4291, 4291, 4291, 4291, 4291, 4291, 4291, 4291, 4291, 4346, 4346, 4346, 4346, 4346, 4346, 4346, 4346, 4346, 4346, 4346, 4346, 4346, 4291, 4346, 4346, 4346, 4291, 4291, 4291, 4291, 4291, 4238, 4238, 4238, 4238, 4186, 4186, 4186, 4186, 4186, 4186, 4186, 0, 0, 0, 0, 0, 0, 0, 0, 0, 0, 0, 0, 0, 0, 0, 0, 0, 2064, 2064, 2064, 2064, 2052, 2040, 2040, 2028, 2028, 2028, 2016, 2016, 2004, 2004, 2004, 2004, 1992, 2004, 1992, 1992, 1992, 1992, 1981, 1981, 1981, 1981, 1981, 1981, 1981, 1981, 1981, 1969, 1969, 1969, 1969, 1958, 1958, 1947, 1947, 1947, 1947, 1947, 1947, 1947, 1947, 1947, 1947, 1936, 1936, 1936, 1936, 1925, 1925, 1925, 1914, 1914, 1925, 1925, 1936, 1936, 1947, 1969, 1969, 1981, 1992, 1992, 1992, 2004, 2016, 2016, 2028, 2028, 2040, 2052, 2052, 2052, 2052, 2052, 2052, 2052, 2064, 2064, 2064, 2064, 2064, 2064, 2064, 2077, 2077, 2089, 2102, 2115, 2115, 2129, 2129, 2129, 2142, 2142, 2155, 2155, 2155, 2155, 2155, 0, 3612, 3730, 3730, 3730, 3730, 3730, 3730, 3730, 3730, 3730, 3730, 3771, 3771, 3771, 3771, 3771, 3771, 3771, 3771, 3771, 3771, 3771, 3730, 3730, 3730, 3730, 3730, 3690, 3690, 3690, 3690, 3690, 3650, 3650, 3650, 3612, 3612, 3612, 3574, 3537, 3537, 3537, 3537, 3537, 3537, 3537, 3537, 3537, 3537, 3537, 3537, 3537, 3537, 3537, 3537, 3501, 3501, 3501, 3501, 3501, 3501, 3501, 3501, 3501, 3501, 3501, 3465, 3465, 3465, 3465, 3431, 3431, 3431, 3431, 3397, 3397, 3397, 3363, 3363, 3363, 3363, 3363, 3363, 3363, 3363, 3363, 3363, 0, 0, 0, 0, 0, 0, 0, 0, 0, 0, 0, 0, 1947, 1947, 1947, 1947, 1947, 1936, 1936, 1936, 1936, 1936, 1925, 1925, 1925, 1925, 1925, 0, 0, 0, 0, 3147, 3147, 3147, 3147, 3147, 3118, 3118, 3118, 3118, 3118, 3118, 3118, 3118, 3118, 3090, 3090, 3090, 3090, 3090, 3062, 3062, 3062, 3062, 3035, 3035, 3035, 3035, 3035, 3008, 3008, 3008, 3008, 3008, 3008, 3008, 3008, 2982, 2982, 2982, 2982, 2982, 2982, 2982, 2956, 2956, 2956, 2956, 2956, 2956, 2931, 2931, 2931, 2931, 2906, 2906, 2906, 2906, 2906, 2906, 2882, 2882, 2882, 2882, 2882, 2882, 2882, 2882, 2882, 2882, 2882, 2858, 2858, 2834, 2834, 2834, 2834, 2834, 2811, 2811, 2811, 2811, 2811, 2811, 2788, 2788, 2788, 2788, 2788, 2765, 2765, 2765, 2765, 2743, 2743, 2743, 2743, 2743, 2743, 2743, 2743, 2743, 2743, 2721, 2721, 2721, 2721, 2700, 2700, 2721, 2700, 2700, 2700, 2679, 2679, 2679, 2679, 2679, 2679, 2679, 2658, 2658, 2658, 2637, 2637, 2637, 0, 0, 0, 0, 2502, 0, 0, 2064, 2064, 2064, 2064, 2064, 2064, 2064, 2052, 2052, 2052, 2089, 0, 2578, 2578, 2578, 2558, 2558, 2558, 2558, 2558, 2539, 2521, 2521, 2502, 0, 0, 2484, 0, 0, 0, 2484, 2484, 2466, 2466, 2448, 2448, 2448, 2431, 2431, 2431, 2431, 2431, 2431, 2431, 2431, 2431, 2431, 2431, 2431, 2431, 2431, 2431, 2431, 2431, 2431, 2431, 0, 0, 2431, 2431, 0, 0, 2431, 2431, 2414, 2414, 2414, 2414, 2397, 2397, 2397, 2380, 2380, 2380, 2380, 2380, 2364, 2364, 2364, 2364, 2364, 2364, 2364, 2364, 2348, 2348, 2348, 2348, 2348, 2348, 2348, 2348, 2348, 2348, 2332, 2332, 2332, 2332, 2332, 2332, 2332, 2332, 2332, 2332, 2332, 2316, 2316, 2316, 2316, 2316, 2316,
       4238, 4238, 4238, 4238, 4238, 4238, 4238, 4238, 4238, 4238, 4238, 4238, 4238, 4238, 4291, 4291, 4291, 4291, 4291, 4291, 4291, 4291, 4291, 4291, 4291, 4291, 4291, 4291, 4291, 4346, 4346, 4346, 4346, 4346, 4346, 4346, 4346, 4346, 4346, 4346, 4346, 4346, 4291, 4346, 4346, 4346, 4291, 4291, 4291, 4291, 4291, 4238, 4238, 4238, 4238, 4186, 4186, 4186, 4186, 4186, 4186, 4186, 0, 0, 0, 0, 0, 0, 0, 0, 0, 0, 0, 0, 0, 0, 0, 0, 0, 2064, 2064, 2064, 2052, 2052, 2040, 2028, 2028, 2016, 2016, 2016, 2016, 2016, 2004, 2004, 2004, 2004, 1992, 1992, 1992, 1992, 1992, 1981, 1981, 1981, 1981, 1981, 1981, 1969, 1969, 1969, 1969, 1969, 1969, 1958, 1958, 1958, 1947, 1947, 1947, 1947, 1947, 1947, 1947, 1947, 1947, 1947, 1936, 1936, 1936, 1936, 1925, 1925, 1925, 1914, 1925, 1925, 1925, 1936, 1936, 1947, 1969, 1969, 1981, 1981, 1992, 1992, 2004, 2016, 2016, 2028, 2028, 2040, 2052, 2052, 2052, 2052, 2052, 2052, 2052, 2064, 2064, 2064, 2064, 2064, 2064, 2077, 2077, 2077, 2089, 2102, 2115, 2115, 2129, 2129, 2129, 2142, 2142, 2155, 2155, 2155, 2155, 2155, 0, 3574, 3730, 3730, 3730, 3730, 3730, 3730, 3730, 3730, 3730, 3730, 3771, 3771, 3771, 3771, 3771, 3771, 3771, 3771, 3771, 3771, 3771, 3730, 3730, 3730, 3730, 3730, 3690, 3690, 3690, 3690, 3690, 3650, 3650, 3650, 3612, 3612, 3612, 3612, 3537, 3537, 3537, 3537, 3537, 3537, 3537, 3537, 3537, 3537, 3537, 3537, 3537, 3537, 3537, 3501, 3501, 3501, 3501, 3501, 3501, 3501, 3501, 3501, 3501, 3501, 3501, 3465, 3465, 3465, 3465, 3431, 3431, 3431, 3431, 3397, 3397, 3397, 3363, 3363, 3363, 3363, 3363, 3363, 3363, 3363, 3363, 3363, 0, 0, 0, 0, 0, 0, 0, 0, 0, 0, 0, 0, 1947, 1947, 1947, 1947, 1947, 1947, 1936, 1936, 1936, 1936, 1925, 1925, 1925, 1925, 1925, 0, 0, 0, 3236, 3176, 3176, 3147, 3147, 3147, 3118, 3118, 3118, 3118, 3118, 3118, 3118, 3118, 3118, 3090, 3090, 3090, 3090, 3090, 3062, 3062, 3062, 3062, 3035, 3035, 3035, 3035, 3035, 3035, 3008, 3008, 3008, 3008, 3008, 3008, 3008, 2982, 2982, 2982, 2982, 2982, 2982, 2956, 2956, 2956, 2956, 2956, 2956, 2956, 2931, 2931, 2931, 2931, 2906, 2906, 2906, 2906, 2906, 2906, 2882, 2882, 2882, 2882, 2882, 2882, 2882, 2882, 2882, 2882, 2882, 2858, 2858, 2858, 2834, 2834, 2834, 2834, 2811, 2811, 2811, 2811, 2811, 2811, 2788, 2788, 2788, 2788, 2788, 2765, 2765, 2765, 2765, 2765, 2765, 2743, 2743, 2743, 2743, 2743, 2743, 2743, 2743, 2721, 2721, 2721, 2721, 2721, 2700, 2700, 2700, 2700, 2700, 2679, 2679, 2679, 2679, 2679, 2679, 2679, 2658, 2658, 2658, 2637, 2637, 2637, 0, 0, 0, 0, 0, 0, 0, 2064, 2064, 2064, 2064, 2064, 2064, 2064, 2052, 2052, 2052, 2102, 0, 2578, 2578, 2578, 2558, 2558, 2558, 2558, 2558, 2558, 2539, 2521, 2521, 0, 0, 2502, 0, 0, 0, 2484, 2484, 2484, 2466, 2448, 2448, 2448, 2431, 2431, 2431, 2431, 2431, 2431, 2431, 2431, 2431, 2431, 2431, 2431, 2431, 2431, 2431, 2431, 2431, 2431, 2414, 0, 0, 2431, 2431, 2431, 2431, 2431, 2431, 2431, 2414, 2414, 2414, 2397, 2397, 2397, 2380, 2380, 2380, 2380, 2364, 2364, 2364, 2364, 2364, 2364, 2364, 2364, 2364, 2348, 2348, 2348, 2348, 2348, 2348, 2348, 2348, 2348, 2332, 2332, 2332, 2332, 2332, 2332, 2332, 2332, 2332, 2332, 2332, 2332, 2316, 2316, 2316, 2316, 2316, 2316,
       4238, 4238, 4238, 4238, 4238, 4238, 4238, 4238, 4238, 4238, 4238, 4238, 4238, 4291, 4291, 4291, 4291, 4291, 4291, 4291, 4291, 4291, 4291, 4291, 4291, 4291, 4291, 4291, 4291, 4346, 4346, 4346, 4346, 4346, 4346, 4346, 4346, 4346, 4346, 4346, 4346, 4346, 4291, 4346, 4346, 4346, 4346, 4291, 4291, 4291, 4291, 4238, 4238, 4238, 4238, 4186, 4186, 4186, 4186, 4186, 4186, 4186, 4136, 0, 0, 0, 0, 0, 0, 0, 0, 0, 0, 0, 0, 0, 0, 0, 0, 0, 2052, 2052, 2052, 2040, 2040, 2028, 2016, 2016, 2016, 2016, 2016, 2016, 2016, 2004, 2004, 2004, 2004, 1992, 1992, 1992, 1992, 1981, 1981, 1981, 1981, 1981, 1981, 1981, 1969, 1969, 1969, 1969, 1969, 1958, 1958, 1958, 1947, 1947, 1947, 1947, 1947, 1947, 1947, 1947, 1947, 1947, 1936, 1936, 1947, 1936, 1936, 1925, 1925, 1925, 1925, 1925, 1925, 1936, 1936, 1947, 1969, 1969, 1981, 1981, 1992, 1992, 2004, 2004, 2016, 2016, 2028, 2028, 2040, 2040, 2040, 2052, 2052, 2052, 2052, 2064, 2064, 2064, 2064, 2064, 2064, 2077, 2077, 2077, 2089, 2102, 2102, 2115, 2115, 2129, 2129, 2142, 2142, 2155, 2155, 2155, 2155, 2155, 0, 3537, 3730, 3730, 3730, 3730, 3690, 3730, 3730, 3730, 3730, 3730, 3771, 3771, 3771, 3771, 3771, 3771, 3771, 3771, 3771, 3771, 3730, 3730, 3730, 3730, 3730, 3690, 3690, 3690, 3690, 3690, 3690, 3690, 3650, 3650, 3650, 3612, 3612, 3612, 3574, 3537, 3537, 3537, 3537, 3537, 3537, 3537, 3537, 3537, 3537, 3537, 3537, 3537, 3537, 3537, 3501, 3501, 3501, 3501, 3501, 3501, 3501, 3501, 3501, 3501, 3501, 3501, 3465, 3465, 3465, 3431, 3431, 3431, 3431, 3397, 3397, 3397, 3363, 3363, 3363, 3363, 3363, 3363, 3363, 3363, 3363, 3363, 0, 0, 0, 0, 0, 0, 0, 0, 0, 0, 0, 0, 1958, 1947, 1947, 1947, 1947, 1947, 1936, 1936, 1936, 1936, 1936, 1936, 1936, 1936, 0, 0, 0, 0, 0, 0, 3176, 3147, 3147, 3147, 3118, 3118, 3118, 3118, 3118, 3118, 3118, 3118, 3090, 3090, 3090, 3090, 3090, 3090, 3062, 3062, 3062, 3062, 3035, 3035, 3035, 3035, 3035, 3035, 3008, 3008, 3008, 3008, 3008, 3008, 2982, 2982, 2982, 2982, 2982, 2982, 2956, 2956, 2956, 2956, 2956, 2956, 2931, 2931, 2931, 2931, 2931, 2906, 2906, 2906, 2906, 2906, 2906, 2882, 2882, 2882, 2882, 2882, 2882, 2882, 2882, 2882, 2882, 2882, 2882, 2858, 2858, 2834, 2834, 2834, 2834, 2834, 2834, 2811, 2811, 2811, 2811, 2811, 2811, 2788, 2788, 2788, 2788, 2788, 2788, 2765, 2765, 2765, 2765, 2765, 2765, 2743, 2743, 2743, 2743, 2743, 2743, 2743, 2721, 2721, 2721, 2721, 2700, 2700, 2700, 2700, 2700, 2679, 2679, 2679, 2679, 2679, 2679, 2679, 2658, 2658, 2658, 2637, 2637, 2637, 2617, 0, 0, 0, 0, 0, 0, 2064, 2064, 2064, 2064, 2064, 2064, 2052, 2052, 2052, 2052, 2077, 0, 0, 2578, 2578, 2558, 2558, 2558, 2558, 2558, 2558, 2539, 2521, 2521, 2521, 2521, 2521, 2502, 2502, 2502, 2484, 2484, 2484, 2466, 2466, 2448, 2448, 2431, 2431, 2431, 2431, 2431, 2431, 2431, 2431, 2431, 2431, 2431, 2431, 2431, 2431, 2431, 2414, 2414, 2414, 2431, 0, 0, 2448, 2431, 2431, 2431, 2431, 2431, 2431, 2414, 2414, 2414, 2397, 2397, 2397, 2380, 2380, 2380, 2380, 2364, 2364, 2364, 2364, 2364, 2364, 2364, 2364, 2348, 2348, 2348, 2348, 2348, 2348, 2348, 2348, 2348, 2348, 2332, 2332, 2332, 2332, 2332, 2332, 2332, 2332, 2332, 2332, 2332, 2332, 2316, 2316, 2316, 2316, 2316, 2316,
       4186, 4186, 4186, 4186, 4238, 4238, 4238, 4238, 4238, 4238, 4238, 4238, 4238, 4291, 4291, 4291, 4291, 4291, 4291, 4291, 4291, 4291, 4291, 4291, 4291, 4291, 4291, 4291, 4291, 4346, 4346, 4346, 4346, 4346, 4346, 4346, 4346, 4346, 4346, 4346, 4346, 4346, 4346, 4346, 4346, 4346, 4346, 4291, 4291, 4291, 4291, 4238, 4238, 4238, 4238, 4186, 4186, 4186, 4186, 4186, 4186, 4186, 4136, 0, 0, 0, 0, 0, 0, 0, 0, 0, 0, 0, 0, 0, 0, 0, 0, 0, 0, 2052, 2052, 2040, 2040, 2028, 2016, 2016, 2016, 2016, 2016, 2016, 2016, 2016, 2004, 2004, 2004, 1992, 1992, 1992, 1992, 1992, 1981, 1981, 1981, 1981, 1981, 1981, 1981, 1981, 1969, 1969, 1969, 1958, 1958, 1958, 1947, 1947, 1947, 1947, 1947, 1947, 1947, 1947, 1947, 1947, 1936, 1947, 1947, 1947, 1936, 1936, 1925, 1925, 1925, 1925, 1936, 1936, 1947, 1947, 1969, 1969, 1981, 1981, 1992, 1992, 1992, 2004, 2004, 2016, 2016, 2028, 2028, 2028, 2040, 2040, 2052, 2052, 2052, 2064, 2064, 2064, 2064, 2064, 2064, 2077, 2077, 2077, 2089, 2089, 2102, 2115, 2115, 2129, 2129, 2142, 2142, 2155, 2155, 2155, 2155, 2155, 0, 3501, 3730, 3690, 3690, 3690, 3690, 3690, 3690, 3730, 3730, 3730, 3771, 3771, 3771, 3771, 3771, 3771, 3771, 3771, 3771, 3771, 3730, 3730, 3730, 3730, 3730, 3730, 3690, 3690, 3690, 3690, 3690, 3690, 3650, 3650, 3650, 3612, 3612, 3612, 3574, 3537, 3537, 3537, 3537, 3537, 3537, 3537, 3537, 3537, 3537, 3537, 3537, 3537, 3537, 3537, 3537, 3537, 3537, 3501, 3501, 3501, 3501, 3501, 3501, 3501, 3501, 3501, 3465, 3465, 3465, 3431, 3431, 3431, 3431, 3397, 3397, 3397, 3397, 3363, 3363, 3363, 3363, 3363, 3363, 3363, 3363, 3363, 3363, 3363, 3363, 0, 0, 0, 0, 0, 0, 0, 0, 1958, 1958, 1958, 1958, 1947, 1947, 1947, 1947, 1936, 1936, 1936, 1936, 1936, 1936, 1936, 0, 0, 0, 0, 0, 0, 3176, 3147, 3147, 3147, 3118, 3118, 3118, 3118, 3118, 3118, 3118, 3118, 3090, 3090, 3090, 3090, 3090, 3090, 3062, 3062, 3062, 3062, 3062, 3035, 3035, 3035, 3035, 3035, 3008, 3008, 3008, 3008, 3008, 2982, 2982, 2982, 2982, 2982, 2982, 2982, 2956, 2956, 2956, 2956, 2956, 2956, 2931, 2931, 2931, 2931, 2906, 2906, 2906, 2906, 2906, 2906, 2906, 2882, 2882, 2882, 2882, 2882, 2882, 2882, 2882, 2882, 2882, 2882, 2882, 2858, 2858, 2858, 2834, 2834, 2834, 2834, 2834, 2811, 2811, 2811, 2811, 2811, 2811, 2788, 2788, 2788, 2788, 2788, 2788, 2788, 2765, 2765, 2765, 2765, 2765, 2743, 2743, 2743, 2743, 2743, 2743, 2721, 2721, 2721, 2721, 2721, 2700, 2700, 2700, 2700, 2679, 2679, 2679, 2679, 2679, 2679, 2679, 2679, 2658, 2658, 2658, 2637, 2637, 2637, 0, 0, 0, 0, 0, 0, 0, 2064, 2064, 2064, 2064, 2064, 2052, 2052, 2052, 2052, 2052, 2052, 0, 0, 2578, 2578, 2558, 2558, 2558, 2558, 2558, 2558, 2539, 2539, 2539, 2521, 2521, 2521, 2521, 2521, 2521, 2502, 2484, 2484, 2484, 2466, 2448, 2448, 2431, 2431, 2448, 2448, 2431, 2431, 2431, 2431, 2431, 2431, 2431, 2431, 2431, 2431, 2431, 2414, 2414, 2431, 2431, 2431, 2431, 2448, 2431, 2431, 2431, 2431, 2431, 2431, 2414, 2414, 2414, 2397, 2397, 2397, 2380, 2380, 2380, 2380, 2364, 2364, 2364, 2364, 2364, 2364, 2364, 2364, 2348, 2348, 2348, 2348, 2348, 2348, 2348, 2348, 2348, 2348, 2332, 2332, 2332, 2332, 2332, 2332, 2332, 2316, 2316, 2316, 2316, 2316, 2316, 2316, 2316, 2316, 2316, 2316,
       4186, 4186, 4186, 4186, 4238, 4238, 4238, 4238, 4238, 4238, 4238, 4238, 4238, 4291, 4291, 4291, 4291, 4291, 4291, 4291, 4291, 4291, 4291, 4291, 4291, 4291, 4291, 4291, 4291, 4346, 4346, 4346, 4346, 4346, 4346, 4346, 4346, 4346, 4346, 4346, 4346, 4346, 4346, 4346, 4346, 4346, 4346, 4291, 4291, 4291, 4291, 4238, 4238, 4238, 4238, 4186, 4186, 4186, 4186, 4186, 4186, 4186, 4186, 0, 0, 0, 0, 0, 0, 0, 0, 0, 0, 0, 0, 0, 0, 0, 0, 0, 0, 2064, 2052, 2052, 2028, 2028, 2016, 2016, 2016, 2016, 2016, 2016, 2016, 2016, 2016, 2004, 2004, 1992, 1992, 1992, 1992, 1992, 1981, 1981, 1981, 1981, 1981, 1981, 1981, 1981, 1969, 1969, 1969, 1958, 1958, 1958, 1947, 1947, 1947, 1947, 1947, 1947, 1947, 1947, 1947, 1947, 1936, 1947, 1947, 1936, 1936, 1936, 1925, 1925, 1925, 1925, 1925, 1936, 1947, 1947, 1969, 1969, 1981, 1981, 1992, 1992, 1992, 2004, 2004, 2016, 2016, 2016, 2028, 2028, 2040, 2040, 2040, 2052, 2052, 2064, 2064, 2064, 2064, 2064, 2064, 2077, 2077, 2077, 2089, 2089, 2102, 2115, 2115, 2129, 2129, 2129, 2142, 2142, 2155, 2155, 2155, 2155, 0, 3397, 3690, 3690, 3690, 3690, 3690, 3690, 3730, 3730, 3730, 3730, 3730, 3730, 3730, 3730, 3771, 3771, 3771, 3771, 3771, 3771, 3730, 3730, 3730, 3730, 3730, 3730, 3690, 3690, 3690, 3690, 3690, 3690, 3690, 3650, 3650, 3612, 3612, 3574, 3537, 3537, 3537, 3537, 3537, 3537, 3537, 3537, 3537, 3537, 3537, 3537, 3537, 3537, 3537, 3537, 3537, 3537, 3537, 3501, 3501, 3501, 3501, 3501, 3501, 3501, 3501, 3501, 3465, 3465, 3431, 3431, 3431, 3431, 3431, 3397, 3397, 3397, 3397, 3363, 3363, 3363, 3363, 3363, 3363, 3363, 3363, 3363, 3363, 3363, 0, 0, 0, 0, 0, 0, 0, 0, 0, 0, 1958, 1958, 1958, 1947, 1947, 1947, 1947, 1936, 1936, 1936, 1936, 1936, 1936, 1936, 1936, 1936, 0, 0, 0, 3176, 3176, 3147, 3147, 3147, 3147, 3118, 3118, 3118, 3118, 3118, 3118, 3090, 3090, 3090, 3090, 3090, 3090, 3090, 3062, 3062, 3062, 3062, 3062, 3062, 3035, 3035, 3035, 3035, 3035, 3035, 3008, 3008, 3008, 3008, 2982, 2982, 2982, 2982, 2982, 2982, 2956, 2956, 2956, 2956, 2956, 2956, 2931, 2931, 2931, 2931, 2906, 2906, 2906, 2906, 2906, 2906, 2906, 2906, 2882, 2882, 2882, 2882, 2882, 2882, 2882, 2882, 2882, 2882, 2882, 2858, 2858, 2858, 2834, 2834, 2834, 2834, 2834, 2811, 2811, 2811, 2811, 2811, 2811, 2788, 2788, 2788, 2788, 2788, 2788, 2788, 2765, 2765, 2765, 2765, 2765, 2743, 2743, 2743, 2743, 2743, 2743, 2721, 2721, 2721, 2721, 2721, 2700, 2700, 2700, 2679, 2679, 2679, 2679, 2679, 2679, 2658, 2679, 2679, 2658, 2658, 2658, 2637, 2637, 2637, 0, 0, 0, 0, 0, 0, 0, 2064, 2064, 2064, 2064, 2064, 2064, 2064, 2052, 2052, 2052, 2052, 0, 2578, 2578, 2578, 2578, 2558, 2558, 2558, 2558, 2558, 2539, 2539, 2539, 2539, 2539, 2539, 2521, 2521, 2521, 2502, 2502, 2502, 2502, 2484, 2466, 2466, 2448, 2448, 2466, 2448, 2448, 2448, 2431, 2431, 2431, 2431, 2431, 2431, 2431, 2431, 2431, 2414, 2414, 2431, 2431, 2431, 2448, 2448, 2448, 2431, 2431, 2431, 2431, 2431, 2414, 2414, 2414, 2397, 2397, 2397, 2397, 2380, 2380, 2380, 2380, 2380, 2380, 2364, 2364, 2364, 2364, 2364, 2364, 2348, 2348, 2348, 2348, 2348, 2348, 2348, 2348, 2348, 2348, 2332, 2332, 2332, 2332, 2332, 2332, 2316, 2316, 2316, 2316, 2316, 2316, 2316, 2316, 2316, 2316, 2316,
       4186, 4186, 4186, 4186, 4186, 4238, 4238, 4238, 4238, 4238, 4238, 4238, 4238, 4291, 4291, 4291, 4291, 4291, 4291, 4291, 4291, 4291, 4291, 4291, 4291, 4291, 4291, 4291, 4291, 4291, 4346, 4346, 4346, 4346, 4346, 4346, 4346, 4346, 4346, 4346, 4346, 4346, 4346, 4346, 4346, 4346, 4346, 4291, 4291, 4291, 4291, 4238, 4238, 4238, 4238, 4186, 4186, 4186, 4186, 4186, 4186, 4186, 4186, 4136, 0, 0, 0, 0, 0, 0, 0, 0, 0, 0, 0, 0, 0, 0, 0, 0, 0, 2064, 2064, 2052, 2028, 2028, 2028, 2016, 2016, 2016, 2016, 2016, 2016, 2016, 2016, 2004, 2004, 1992, 1992, 1992, 1992, 1981, 1981, 1981, 1981, 1981, 1981, 1981, 1981, 1981, 1969, 1969, 1969, 1958, 1958, 1958, 1947, 1947, 1947, 1947, 1947, 1947, 1947, 1947, 1947, 1947, 1947, 1947, 1947, 1936, 1936, 1936, 1925, 1925, 1925, 1925, 1925, 1936, 1947, 1958, 1969, 1969, 1981, 1981, 1992, 1992, 1992, 2004, 2004, 2004, 2004, 2016, 2028, 2028, 2028, 2028, 2040, 2040, 2052, 2052, 2064, 2064, 2064, 2064, 2064, 2077, 2077, 2077, 2089, 2089, 2102, 2115, 2115, 2129, 2129, 2129, 2142, 2142, 2142, 2155, 2155, 2197, 0, 3363, 3690, 3690, 3690, 3690, 3690, 3690, 3730, 3730, 3730, 3730, 3730, 3771, 3730, 3730, 3771, 3771, 3771, 3771, 3771, 3730, 3730, 3730, 3730, 3730, 3730, 3690, 3690, 3690, 3690, 3690, 3690, 3690, 3690, 3650, 3650, 3612, 3612, 3574, 3537, 3537, 3537, 3537, 3537, 3537, 3537, 3537, 3537, 3537, 3537, 3537, 3537, 3537, 3537, 3537, 3501, 3501, 3501, 3501, 3501, 3501, 3501, 3501, 3501, 3501, 3501, 3465, 3465, 3465, 3431, 3431, 3431, 3431, 3397, 3397, 3397, 3397, 3397, 3363, 3363, 3363, 3363, 3363, 3363, 3363, 3363, 3363, 3363, 3363, 0, 0, 0, 0, 0, 0, 0, 0, 0, 0, 0, 1958, 1958, 1947, 1947, 1947, 1947, 1936, 1936, 1936, 1936, 1936, 1936, 1936, 1936, 1936, 1936, 0, 0, 3176, 3176, 3147, 3147, 3147, 3147, 3118, 3118, 3118, 3118, 3118, 3118, 3118, 3118, 3090, 3090, 3090, 3090, 3090, 3090, 3062, 3062, 3062, 3062, 3062, 3062, 3035, 3035, 3035, 3035, 3035, 3035, 3008, 3008, 3008, 3008, 2982, 2982, 2982, 2982, 2982, 2956, 2956, 2956, 2956, 2956, 2956, 2931, 2931, 2931, 2931, 2931, 2931, 2906, 2906, 2906, 2906, 2906, 2906, 2882, 2882, 2882, 2882, 2882, 2882, 2882, 2882, 2882, 2882, 2882, 2858, 2858, 2858, 2834, 2834, 2834, 2834, 2834, 2811, 2811, 2811, 2811, 2811, 2811, 2788, 2788, 2788, 2788, 2788, 2788, 2788, 2765, 2765, 2765, 2765, 2765, 2743, 2743, 2743, 2743, 2743, 2743, 2743, 2721, 2721, 2721, 2721, 2700, 2700, 2679, 2679, 2679, 2679, 2658, 2658, 2658, 2658, 2658, 2658, 2658, 2658, 2637, 2637, 2637, 2637, 0, 0, 0, 0, 0, 0, 0, 0, 2064, 2064, 2064, 2064, 2064, 2052, 2052, 2052, 2052, 2089, 0, 2578, 2578, 2578, 2578, 2558, 2558, 2558, 2558, 2558, 2539, 2539, 2539, 2539, 2539, 2539, 2539, 2521, 2521, 2521, 2521, 2521, 2521, 2502, 2484, 2484, 2466, 2466, 2484, 2466, 2448, 2448, 2448, 2448, 2431, 2431, 2431, 2431, 2431, 2431, 2431, 0, 0, 0, 2431, 2448, 2448, 2448, 2448, 2431, 2431, 2431, 2431, 2431, 2431, 2414, 2414, 2397, 2397, 2397, 2397, 2380, 2380, 2380, 2380, 2380, 2380, 2380, 2364, 2364, 2364, 2364, 2364, 2364, 2364, 2364, 2348, 2348, 2348, 2348, 2348, 2348, 2348, 2348, 2348, 2348, 2332, 2332, 2332, 2316, 2316, 2316, 2316, 2316, 2316, 2316, 2316, 2316, 2316, 2316,
       4186, 4186, 4186, 4186, 4238, 4238, 4238, 4238, 4238, 4238, 4238, 4238, 4291, 4291, 4291, 4291, 4291, 4291, 4291, 4291, 4291, 4291, 4291, 4291, 4291, 4291, 4291, 4291, 4291, 4291, 4346, 4346, 4346, 4346, 4346, 4346, 4346, 4346, 4346, 4346, 4346, 4346, 4346, 4346, 4346, 4346, 4346, 4291, 4291, 4291, 4291, 4238, 4238, 4238, 4238, 4186, 4186, 4186, 4186, 4186, 4186, 4186, 4136, 4136, 0, 0, 0, 0, 0, 0, 0, 0, 0, 0, 0, 0, 0, 0, 0, 0, 0, 2077, 2064, 2052, 2028, 2028, 2028, 2016, 2016, 2016, 2016, 2016, 2016, 2016, 2016, 2016, 2004, 1992, 1992, 1992, 1992, 1992, 1981, 1981, 1981, 1981, 1981, 1981, 1981, 1969, 1969, 1969, 1969, 1958, 1958, 1958, 1958, 1947, 1958, 1958, 1958, 1958, 1947, 1947, 1947, 1947, 1947, 1947, 1947, 1936, 1936, 1936, 1925, 1925, 1925, 1925, 1925, 1936, 1947, 1958, 1969, 1969, 1981, 1981, 1992, 1992, 1992, 2004, 2004, 2004, 2004, 2004, 2016, 2028, 2028, 2028, 2028, 2040, 2040, 2052, 2052, 2064, 2064, 2064, 2077, 2077, 2077, 2089, 2089, 2089, 2102, 2115, 2115, 2115, 2129, 2129, 2129, 2142, 2142, 2142, 2155, 0, 0, 3465, 3690, 3690, 3690, 3690, 3690, 3690, 3730, 3730, 3730, 3730, 3771, 3771, 3730, 3730, 3771, 3771, 3771, 3771, 3771, 3730, 3730, 3730, 3730, 3730, 3730, 3690, 3690, 3690, 3690, 3690, 3690, 3650, 3650, 3650, 3612, 3612, 3612, 3574, 3537, 3537, 3537, 3537, 3537, 3537, 3537, 3537, 3537, 3537, 3537, 3537, 3537, 3537, 3537, 3537, 3501, 3537, 3501, 3501, 3501, 3501, 3501, 3501, 3501, 3501, 3465, 3465, 3465, 3431, 3431, 3431, 3431, 3431, 3397, 3397, 3397, 3397, 3397, 3397, 3363, 3363, 3363, 3363, 3363, 3363, 3363, 3363, 3363, 0, 0, 0, 0, 0, 0, 0, 0, 0, 0, 0, 0, 1969, 1958, 1958, 1958, 1947, 1947, 1947, 1936, 1936, 1936, 1936, 1936, 1936, 1936, 1936, 1947, 0, 3147, 3176, 3147, 3147, 3147, 3147, 3147, 3118, 3118, 3118, 3118, 3118, 3118, 3118, 3118, 3118, 3118, 3090, 3090, 3090, 3090, 3090, 3090, 3062, 3062, 3062, 3062, 3035, 3035, 3035, 3035, 3035, 3035, 3008, 3008, 3008, 3008, 2982, 2982, 2982, 2982, 2982, 2956, 2956, 2956, 2956, 2956, 2931, 2931, 2931, 2931, 2931, 2931, 2931, 2906, 2906, 2906, 2906, 2906, 2906, 2882, 2882, 2882, 2882, 2882, 2882, 2882, 2882, 2882, 2882, 2882, 2858, 2858, 2858, 2834, 2834, 2834, 2834, 2811, 2811, 2811, 2811, 2811, 2811, 2811, 2788, 2788, 2788, 2788, 2788, 2788, 2788, 2765, 2765, 2765, 2765, 2765, 2743, 2743, 2743, 2743, 2743, 2743, 2743, 2721, 2721, 2721, 2721, 2700, 2700, 2700, 2679, 2679, 2679, 2679, 2658, 2658, 2658, 2658, 2658, 2658, 2658, 2637, 2637, 2637, 2637, 2617, 0, 0, 0, 0, 0, 0, 0, 2064, 2064, 2064, 2064, 2052, 2052, 2052, 2052, 2052, 2052, 0, 2578, 2578, 2578, 2578, 2558, 2558, 2558, 2558, 2558, 2539, 2539, 2539, 2539, 2539, 2539, 2539, 2521, 2539, 2521, 2521, 2521, 2521, 2521, 2502, 2502, 2484, 2484, 2484, 2466, 2466, 2466, 2448, 2448, 2448, 2448, 2431, 2431, 2448, 2431, 2431, 0, 0, 0, 2431, 2448, 2448, 2448, 2448, 2431, 2431, 2431, 2431, 2431, 2431, 2414, 2397, 2397, 2397, 2397, 2397, 2380, 2380, 2380, 2380, 2380, 2380, 2380, 2364, 2364, 2364, 2364, 2364, 2364, 2364, 2364, 2364, 2364, 2348, 2348, 2348, 2348, 2348, 2348, 2348, 2348, 2332, 2332, 2332, 2316, 2316, 2316, 2316, 2316, 2316, 2316, 2316, 2316, 2316, 2316,
       4186, 4186, 4186, 4186, 4238, 4238, 4238, 4238, 4238, 4238, 4238, 4238, 4238, 4291, 4291, 4291, 4291, 4291, 4291, 4291, 4291, 4291, 4291, 4291, 4291, 4291, 4291, 4291, 4291, 4346, 4346, 4346, 4346, 4346, 4346, 4346, 4346, 4346, 4346, 4346, 4346, 4346, 4346, 4346, 4346, 4346, 4346, 4291, 4291, 4291, 4291, 4238, 4238, 4238, 4238, 4238, 4186, 4186, 4186, 4186, 4186, 4186, 4186, 4136, 0, 0, 0, 0, 0, 0, 2270, 2255, 2240, 0, 0, 0, 0, 0, 0, 0, 0, 2077, 2064, 2052, 2040, 2028, 2028, 2016, 2016, 2016, 2016, 2016, 2016, 2016, 2016, 2016, 2004, 2004, 2004, 2004, 1992, 1992, 1981, 1981, 1981, 1981, 1981, 1981, 1981, 1981, 1969, 1969, 1969, 1969, 1958, 1958, 1958, 1958, 1958, 1958, 1958, 1958, 1947, 1947, 1947, 1947, 1947, 1947, 1947, 1936, 1936, 1936, 1925, 1925, 1925, 1925, 1925, 1936, 1947, 1958, 1969, 1969, 1981, 1981, 1992, 1992, 1992, 2004, 2004, 2004, 1992, 2004, 2016, 2016, 2016, 2028, 2028, 2028, 2040, 2040, 2052, 2052, 2064, 2064, 2064, 2077, 2077, 2089, 2089, 2102, 2102, 2115, 2115, 2115, 2129, 2129, 2129, 2129, 2129, 2142, 0, 0, 3574, 3690, 3690, 3690, 3690, 3690, 3690, 3690, 3690, 3730, 3730, 3730, 3771, 3771, 3730, 3730, 3771, 3771, 3730, 3730, 3730, 3730, 3730, 3730, 3730, 3730, 3690, 3690, 3690, 3690, 3690, 3650, 3650, 3650, 3650, 3650, 3612, 3612, 3612, 3574, 3537, 3537, 3537, 3537, 3537, 3537, 3537, 3537, 3537, 3537, 3537, 3537, 3537, 3537, 3537, 3537, 3537, 3537, 3501, 3501, 3501, 3501, 3501, 3501, 3501, 3501, 3501, 3465, 3431, 3431, 3431, 3431, 3431, 3431, 3397, 3397, 3397, 3397, 3397, 3397, 3363, 3363, 3363, 3363, 3363, 3363, 3363, 3363, 3363, 0, 0, 0, 0, 0, 0, 0, 0, 0, 0, 0, 0, 1969, 1958, 1958, 1958, 1947, 1947, 1947, 1936, 1936, 1936, 1936, 1936, 1936, 1936, 1936, 1947, 2004, 0, 3147, 3147, 3147, 3147, 3147, 3147, 3118, 3118, 3118, 3118, 3118, 3118, 3118, 3118, 3118, 3118, 3090, 3090, 3090, 3090, 3090, 3090, 3062, 3062, 3062, 3062, 3035, 3035, 3035, 3035, 3035, 3008, 3008, 3008, 3008, 2982, 2982, 2982, 2982, 2982, 2982, 2982, 2956, 2956, 2956, 2956, 2931, 2931, 2931, 2931, 2931, 2931, 2931, 2906, 2906, 2906, 2906, 2906, 2906, 2906, 2882, 2882, 2882, 2882, 2882, 2882, 2882, 2882, 2882, 2882, 2858, 2858, 2858, 2834, 2834, 2834, 2834, 2811, 2811, 2811, 2811, 2811, 2811, 2811, 2788, 2788, 2788, 2788, 2788, 2788, 2788, 2765, 2765, 2765, 2765, 2765, 2743, 2743, 2743, 2743, 2743, 2743, 2743, 2721, 2721, 2721, 2721, 2721, 2700, 2700, 2700, 2679, 2679, 2679, 2658, 2658, 2658, 2658, 2658, 2658, 2658, 2637, 2637, 2617, 2637, 2617, 0, 0, 0, 0, 0, 0, 0, 2064, 2064, 2064, 2064, 2064, 2064, 2052, 2052, 2052, 0, 0, 0, 2578, 2578, 2578, 2558, 2558, 2558, 2558, 2558, 2539, 2539, 2539, 2539, 2539, 2539, 2539, 2521, 2539, 2521, 2521, 2521, 2539, 2521, 2502, 2502, 2484, 2484, 2484, 2466, 2484, 2466, 2466, 2466, 2448, 2448, 2448, 2448, 2448, 2448, 2431, 2397, 2348, 2380, 2431, 2448, 2448, 2448, 2448, 2431, 2431, 2431, 2431, 2431, 2431, 2414, 2397, 2397, 2397, 2380, 2380, 2380, 2380, 2380, 2380, 2380, 2380, 2380, 2364, 2364, 2364, 2364, 2364, 2364, 2364, 2364, 2364, 2364, 2364, 2364, 2348, 2348, 2348, 2348, 2348, 2348, 2348, 2332, 2332, 2332, 2316, 2316, 2316, 2316, 2316, 2316, 2316, 2300, 2316, 2300,
       4186, 4186, 4186, 4186, 4186, 4238, 4238, 4238, 4238, 4238, 4238, 4238, 4238, 4291, 4291, 4291, 4291, 4291, 4291, 4291, 4291, 4291, 4291, 4291, 4291, 4291, 4291, 4291, 4291, 4346, 4346, 4346, 4346, 4346, 4346, 4346, 4346, 4346, 4346, 4346, 4346, 4346, 4346, 4346, 4346, 4346, 4291, 4291, 4291, 4291, 4291, 4291, 4238, 4238, 4238, 4238, 4238, 4186, 4186, 4186, 4186, 4186, 4186, 4186, 0, 0, 0, 0, 0, 0, 0, 2255, 2240, 0, 0, 0, 0, 0, 0, 0, 0, 2077, 2064, 2052, 2040, 2028, 2028, 2016, 2016, 2016, 2016, 2016, 2016, 2016, 2016, 2016, 2004, 2004, 2004, 2004, 1992, 1992, 1992, 1981, 1981, 1981, 1981, 1981, 1981, 1969, 1969, 1969, 1969, 1969, 1969, 1969, 1958, 1958, 1958, 1958, 1958, 1958, 1947, 1947, 1947, 1947, 1947, 1947, 1947, 1936, 1936, 1936, 1925, 1925, 1925, 1925, 1925, 1936, 1936, 1947, 1969, 1981, 1981, 1992, 2004, 2004, 2004, 2004, 2004, 2004, 1992, 2004, 2016, 2016, 2016, 2016, 2028, 2028, 2028, 2028, 2040, 2052, 2052, 2052, 2064, 2077, 2077, 2077, 2089, 2089, 2102, 2102, 2115, 2115, 2115, 2115, 2129, 2129, 2129, 2155, 0, 0, 3690, 3690, 3690, 3690, 3690, 3690, 3690, 3690, 3690, 3730, 3730, 3730, 3771, 3771, 3730, 3730, 3771, 3771, 3730, 3730, 3730, 3730, 3730, 3690, 3690, 3730, 3690, 3690, 3690, 3690, 3650, 3650, 3650, 3650, 3650, 3650, 3612, 3612, 3612, 3574, 3574, 3537, 3537, 3537, 3537, 3537, 3537, 3537, 3537, 3537, 3537, 3537, 3537, 3537, 3537, 3537, 3537, 3537, 3501, 3501, 3501, 3501, 3501, 3501, 3501, 3501, 3501, 3465, 3465, 3431, 3431, 3431, 3431, 3431, 3397, 3397, 3397, 3397, 3397, 3397, 3397, 3363, 3363, 3363, 3363, 3363, 3363, 3363, 3363, 3363, 0, 0, 0, 0, 0, 0, 0, 0, 0, 0, 0, 1969, 1958, 1958, 1958, 1947, 1947, 1947, 1947, 1936, 1936, 1936, 1936, 1936, 1936, 1936, 1936, 1958, 0, 3176, 3176, 3147, 3147, 3147, 3147, 3118, 3118, 3118, 3118, 3118, 3118, 3118, 3118, 3118, 3090, 3090, 3090, 3090, 3090, 3090, 3062, 3062, 3062, 3062, 3035, 3035, 3035, 3035, 3035, 3008, 3008, 3008, 3008, 3008, 2982, 2982, 3008, 3008, 3008, 2982, 2982, 2982, 2956, 2956, 2956, 2956, 2931, 2931, 2931, 2931, 2931, 2931, 2906, 2906, 2906, 2906, 2906, 2906, 2906, 2882, 2882, 2882, 2882, 2882, 2882, 2882, 2882, 2882, 2882, 2858, 2858, 2858, 2834, 2834, 2834, 2834, 2834, 2811, 2811, 2811, 2811, 2811, 2811, 2788, 2788, 2788, 2788, 2788, 2788, 2788, 2765, 2765, 2765, 2765, 2765, 2743, 2743, 2743, 2743, 2743, 2743, 2743, 2721, 2721, 2721, 2721, 2721, 2700, 2700, 2700, 2679, 2679, 2679, 2679, 2658, 2658, 2658, 2658, 2658, 2658, 2637, 2637, 2617, 2617, 2617, 0, 0, 0, 0, 0, 2064, 2064, 2064, 2064, 2064, 2064, 2064, 2064, 2052, 2052, 2052, 0, 0, 0, 2578, 2578, 2578, 2558, 2558, 2558, 2558, 2558, 2539, 2539, 2539, 2539, 2539, 2539, 2521, 2521, 2539, 2521, 2521, 2521, 2539, 2521, 2502, 2502, 2502, 2502, 2502, 2484, 2484, 2466, 2466, 2466, 2448, 2448, 2448, 2448, 2448, 2448, 2448, 2364, 2255, 2316, 2448, 2448, 2448, 2448, 2448, 2448, 2431, 2431, 2431, 2414, 2414, 2414, 2397, 2397, 2380, 2380, 2380, 2380, 2380, 2380, 2380, 2380, 2380, 2380, 2364, 2364, 2364, 2364, 2364, 2364, 2364, 2364, 2364, 2364, 2364, 2364, 2364, 2348, 2348, 2348, 2348, 2348, 2348, 2332, 2332, 2332, 2316, 2316, 2316, 2316, 2316, 2316, 2300, 2300, 2300, 2300,
       4186, 4186, 4186, 4186, 4186, 4238, 4238, 4238, 4238, 4238, 4238, 4238, 4238, 4238, 4291, 4291, 4291, 4291, 4291, 4291, 4291, 4291, 4291, 4291, 4291, 4291, 4291, 4291, 4291, 4291, 4346, 4346, 4346, 4346, 4346, 4346, 4346, 4402, 4402, 4346, 4346, 4346, 4346, 4346, 4291, 4291, 4291, 4291, 4291, 4291, 4291, 4291, 4238, 4238, 4238, 4238, 4238, 4238, 4186, 4186, 4186, 4186, 4186, 4186, 0, 0, 0, 0, 0, 0, 0, 2270, 2255, 0, 0, 0, 0, 0, 0, 0, 0, 0, 2089, 2064, 2052, 2040, 2028, 2016, 2016, 2016, 2016, 2016, 2016, 2016, 2016, 2016, 2004, 2004, 2004, 2004, 2004, 1992, 1981, 1981, 1981, 1981, 1981, 1981, 1981, 1969, 1969, 1969, 1969, 1969, 1969, 1969, 1969, 1958, 1958, 1958, 1958, 1958, 1947, 1947, 1947, 1947, 1947, 1936, 1947, 1936, 1936, 1936, 1925, 1925, 1925, 1925, 1925, 1936, 1936, 1947, 1969, 1981, 1992, 1992, 2004, 2004, 2004, 2004, 2004, 2004, 1992, 2004, 2016, 2016, 2016, 2016, 2016, 2028, 2028, 2028, 2028, 2040, 2040, 2052, 2064, 2064, 2077, 2077, 2077, 2089, 2089, 2102, 2102, 2115, 2115, 2115, 2115, 2115, 2129, 0, 0, 0, 0, 0, 0, 3690, 3690, 3690, 3690, 3690, 3730, 3730, 3730, 3771, 3771, 3771, 3771, 3730, 3771, 3771, 3730, 3730, 3730, 3730, 3730, 3690, 3690, 3690, 3690, 3690, 3690, 3690, 3650, 3650, 3650, 3650, 3650, 3650, 3612, 3612, 3612, 3574, 3574, 3537, 3537, 3537, 3537, 3537, 3537, 3537, 3537, 3537, 3537, 3537, 3537, 3537, 3537, 3537, 3501, 3501, 3501, 3501, 3501, 3501, 3501, 3501, 3501, 3501, 3501, 3465, 3465, 3465, 3465, 3431, 3431, 3431, 3397, 3397, 3397, 3397, 3397, 3397, 3397, 3363, 3363, 3363, 3397, 3397, 3363, 3363, 3363, 0, 0, 0, 0, 0, 0, 0, 0, 0, 0, 0, 0, 1969, 1969, 1958, 1958, 1958, 1947, 1947, 1947, 1947, 1947, 1936, 1936, 1936, 1936, 1936, 1936, 1936, 0, 3176, 3176, 3176, 3147, 3147, 3147, 3147, 3118, 3118, 3118, 3118, 3118, 3118, 3118, 3118, 3090, 3090, 3090, 3090, 3090, 3090, 3062, 3062, 3062, 3062, 3035, 3035, 3035, 3035, 3008, 3008, 3008, 3008, 3008, 3008, 3008, 2982, 3008, 3008, 3008, 2982, 2982, 2956, 2956, 2956, 2956, 2956, 2931, 2931, 2931, 2931, 2931, 2931, 2906, 2906, 2906, 2906, 2906, 2906, 2906, 2906, 2882, 2882, 2882, 2882, 2882, 2882, 2882, 2882, 2882, 2858, 2858, 2858, 2834, 2834, 2834, 2834, 2834, 2811, 2811, 2811, 2811, 2811, 2811, 2811, 2788, 2788, 2788, 2788, 2788, 2788, 2765, 2765, 2765, 2765, 2765, 2743, 2743, 2743, 2743, 2743, 2743, 2721, 2721, 2721, 2721, 2721, 2721, 2700, 2700, 2700, 2679, 2679, 2679, 2679, 2658, 2658, 2658, 2658, 2658, 2658, 2637, 2637, 2617, 2617, 2617, 0, 0, 0, 0, 0, 2064, 2064, 2064, 2064, 2064, 2064, 2064, 2064, 2052, 2052, 2052, 0, 0, 0, 2597, 2578, 2578, 2578, 2558, 2558, 2558, 2558, 2539, 2539, 2539, 2539, 2539, 2521, 2521, 2521, 2539, 2521, 2521, 2539, 2539, 2521, 2502, 2502, 2502, 2502, 2502, 2484, 2484, 2484, 2484, 2466, 2466, 2448, 2448, 2448, 2448, 2448, 2448, 2431, 2431, 2431, 2431, 2448, 2448, 2448, 2431, 2431, 2431, 2431, 2431, 2414, 2414, 2414, 2397, 2397, 2397, 2380, 2380, 2380, 2380, 2380, 2380, 2364, 2380, 2380, 2380, 2380, 2380, 2380, 2364, 2364, 2364, 2364, 2364, 2364, 2364, 2364, 2364, 2348, 2348, 2348, 2348, 2348, 2348, 2332, 2332, 2332, 2316, 2316, 2316, 2316, 2316, 2316, 2316, 2300, 2300, 2300,
       4186, 4186, 4186, 4186, 4186, 4186, 4238, 4238, 4238, 4238, 4238, 4238, 4238, 4238, 4291, 4291, 4291, 4291, 4291, 4291, 4291, 4291, 4291, 4291, 4291, 4291, 4291, 4291, 4291, 4291, 4346, 4346, 4346, 4346, 4346, 4346, 4346, 4402, 4402, 4402, 4402, 4346, 4346, 4346, 4291, 4291, 4291, 4291, 4291, 4291, 4238, 4238, 4238, 4238, 4238, 4238, 4238, 4186, 4186, 4186, 4186, 4186, 4186, 4186, 4136, 0, 0, 0, 0, 0, 0, 2255, 0, 0, 0, 0, 0, 0, 0, 0, 0, 0, 2102, 2077, 2064, 2052, 0, 0, 2102, 2016, 2016, 2016, 2016, 2016, 2016, 2016, 2016, 2004, 2004, 2004, 2004, 1992, 1981, 1981, 1981, 1981, 1981, 1981, 1981, 1969, 1969, 1969, 1969, 1969, 1958, 1969, 1969, 1958, 1958, 1958, 1958, 1958, 1947, 1947, 1947, 1947, 1936, 1936, 1936, 1936, 1936, 1936, 1925, 1925, 1925, 1925, 1925, 1936, 1936, 1947, 1969, 1981, 1992, 1992, 2004, 2004, 2004, 2004, 2004, 2004, 1992, 2004, 2004, 2016, 2016, 2016, 2016, 2016, 2016, 2028, 2028, 2028, 2028, 2040, 2052, 2064, 2064, 2077, 2077, 2077, 2089, 2089, 2102, 2102, 2115, 2115, 2115, 2115, 2115, 0, 0, 0, 0, 0, 0, 3690, 3690, 3690, 3690, 3690, 3730, 3730, 3730, 3771, 3771, 3771, 3771, 3771, 3771, 3771, 3771, 3730, 3730, 3730, 3730, 3690, 3730, 3730, 3690, 3690, 3690, 3690, 3650, 3650, 3650, 3650, 3650, 3650, 3612, 3612, 3574, 3574, 3537, 3537, 3537, 3537, 3537, 3537, 3537, 3537, 3537, 3537, 3537, 3537, 3537, 3537, 3537, 3501, 3501, 3501, 3501, 3501, 3501, 3501, 3501, 3501, 3501, 3501, 3501, 3465, 3465, 3465, 3431, 3431, 3431, 3431, 3397, 3397, 3397, 3397, 3397, 3397, 3397, 3363, 3363, 3363, 3397, 3397, 3363, 3363, 3363, 0, 0, 0, 0, 0, 0, 0, 0, 0, 0, 0, 0, 1969, 1969, 1958, 1958, 1958, 1947, 1947, 1947, 1947, 1947, 1936, 1936, 1936, 1936, 1936, 1936, 1936, 0, 3176, 3176, 3176, 3147, 3147, 3147, 3147, 3147, 3147, 3147, 3118, 3118, 3118, 3118, 3118, 3090, 3090, 3090, 3090, 3090, 3062, 3062, 3062, 3062, 3062, 3035, 3035, 3035, 3035, 3035, 3008, 3008, 3008, 3008, 3008, 3008, 3008, 3008, 2982, 2982, 2982, 2982, 2956, 2956, 2956, 2956, 2931, 2931, 2931, 2931, 2931, 2931, 2931, 2906, 2906, 2906, 2906, 2906, 2906, 2906, 2906, 2882, 2882, 2882, 2882, 2882, 2882, 2882, 2882, 2882, 2858, 2858, 2858, 2834, 2834, 2834, 2834, 2834, 2811, 2811, 2811, 2811, 2811, 2811, 2811, 2811, 2788, 2788, 2788, 2788, 2788, 2788, 2765, 2765, 2765, 2765, 2743, 2743, 2743, 2743, 2743, 2743, 2721, 2721, 2721, 2721, 2721, 2721, 2700, 2700, 2700, 2679, 2679, 2679, 2679, 2658, 2658, 2658, 2658, 2658, 2637, 2637, 2617, 2617, 2617, 2617, 0, 0, 0, 0, 0, 0, 0, 2064, 2064, 2064, 2064, 2064, 2064, 2064, 2052, 2052, 2052, 2077, 0, 2578, 2578, 2578, 2578, 2558, 2558, 2558, 2558, 2539, 2539, 2539, 2539, 2539, 2539, 2521, 2521, 2521, 2521, 2521, 2521, 2521, 2521, 2502, 2502, 2502, 2502, 2502, 2484, 2484, 2484, 2484, 2484, 2466, 2466, 2448, 2448, 2466, 2448, 2448, 2448, 2431, 2431, 2448, 2448, 2448, 2431, 2431, 2431, 2431, 2431, 2431, 2431, 2414, 2414, 2397, 2397, 2397, 2397, 2397, 2380, 2380, 2380, 2380, 2380, 2380, 2380, 2380, 2380, 2380, 2380, 2364, 2364, 2364, 2364, 2364, 2364, 2364, 2364, 2364, 2348, 2348, 2348, 2348, 2348, 2348, 2332, 2332, 2332, 2316, 2316, 2316, 2316, 2316, 2316, 2316, 2300, 2300, 2300,
       4186, 4186, 4186, 4186, 4186, 4238, 4238, 4238, 4238, 4238, 4238, 4238, 4238, 4238, 4291, 4291, 4291, 4291, 4291, 4291, 4291, 4291, 4291, 4291, 4291, 4291, 4291, 4291, 4291, 4291, 4291, 4291, 4346, 4346, 4346, 4346, 4346, 4346, 4346, 4346, 4402, 4346, 4346, 4346, 4346, 4291, 4291, 4291, 4291, 4291, 4291, 4291, 4238, 4238, 4238, 4238, 4238, 4186, 4186, 4186, 4186, 4186, 4186, 4186, 4136, 0, 0, 0, 0, 0, 0, 2255, 0, 0, 0, 0, 0, 0, 0, 0, 0, 0, 2102, 2077, 2064, 2052, 2040, 0, 2052, 2016, 2016, 2016, 2016, 2016, 2016, 2016, 2004, 2004, 2004, 2004, 2004, 1992, 1981, 1981, 1981, 1981, 1981, 1981, 1981, 1969, 1969, 1969, 1969, 1969, 1958, 1958, 1958, 1958, 1958, 1958, 1958, 1958, 1947, 1947, 1947, 1947, 1936, 1936, 1936, 1936, 1936, 1936, 1925, 1925, 1925, 1925, 1925, 1925, 1936, 1914, 1958, 1981, 1992, 2004, 2004, 2004, 2004, 2004, 2004, 2004, 1992, 2004, 2004, 2016, 2016, 2016, 2016, 2016, 2016, 2016, 2016, 2016, 2028, 2028, 2040, 2052, 2064, 2064, 2077, 2077, 2077, 2089, 2089, 2089, 2102, 2102, 2102, 2115, 2115, 0, 0, 0, 0, 0, 0, 3690, 3690, 3690, 3690, 3690, 3730, 3730, 3730, 3771, 3771, 3771, 3771, 3771, 3771, 3771, 3771, 3730, 3730, 3730, 3730, 3690, 3730, 3730, 3690, 3690, 3690, 3690, 3690, 3650, 3650, 3650, 3650, 3650, 3612, 3612, 3574, 3574, 3537, 3537, 3537, 3537, 3537, 3537, 3537, 3537, 3537, 3537, 3537, 3537, 3537, 3537, 3501, 3501, 3501, 3501, 3501, 3501, 3501, 3501, 3501, 3501, 3501, 3501, 3465, 3465, 3465, 3431, 3431, 3431, 3431, 3431, 3431, 3397, 3397, 3397, 3397, 3397, 3397, 3363, 3363, 3363, 3363, 3363, 3363, 3363, 3363, 0, 0, 0, 0, 0, 0, 0, 0, 0, 0, 0, 1981, 1969, 1969, 1958, 1958, 1958, 1947, 1947, 1947, 1947, 1947, 1936, 1936, 1936, 1936, 1936, 1936, 1936, 0, 3176, 3176, 3176, 3147, 3147, 3147, 3147, 3147, 3147, 3147, 3118, 3118, 3118, 3118, 3118, 3090, 3090, 3090, 3090, 3090, 3062, 3062, 3062, 3062, 3062, 3035, 3035, 3035, 3035, 3035, 3035, 3008, 3008, 3008, 3008, 3008, 3008, 3008, 2982, 2982, 2982, 2982, 2956, 2956, 2956, 2931, 2931, 2931, 2931, 2931, 2931, 2931, 2931, 2906, 2906, 2906, 2906, 2906, 2906, 2906, 2906, 2882, 2882, 2882, 2882, 2882, 2882, 2882, 2882, 2882, 2858, 2858, 2858, 2834, 2834, 2834, 2834, 2834, 2811, 2811, 2811, 2811, 2811, 2811, 2811, 2811, 2788, 2788, 2788, 2788, 2788, 2788, 2765, 2765, 2765, 2765, 2743, 2743, 2743, 2743, 2743, 2743, 2721, 2721, 2721, 2721, 2721, 2721, 2700, 2700, 2700, 2679, 2679, 2679, 2679, 2658, 2658, 2658, 2658, 2658, 2637, 2637, 2617, 2617, 2617, 2597, 2597, 0, 0, 0, 0, 0, 0, 2064, 2064, 2064, 2064, 2064, 2064, 2064, 2052, 2052, 2064, 2077, 0, 2578, 2578, 2578, 2578, 2578, 2558, 2558, 2558, 2558, 2539, 2539, 2539, 2539, 2539, 2521, 2521, 2521, 2521, 2521, 2521, 2521, 2521, 2502, 2502, 2502, 2502, 2502, 2484, 2484, 2484, 2484, 2484, 2466, 2466, 2466, 2466, 2466, 2448, 2448, 2448, 2448, 2448, 2448, 2448, 2448, 2431, 2431, 2431, 2431, 2431, 2431, 2431, 2414, 2414, 2397, 2397, 2397, 2397, 2397, 2380, 2380, 2380, 2380, 2380, 2380, 2380, 2380, 2380, 2380, 2380, 2364, 2364, 2364, 2364, 2364, 2364, 2364, 2364, 2348, 2348, 2348, 2348, 2348, 2348, 2348, 2332, 2332, 2316, 2316, 2316, 2316, 2316, 2316, 2300, 2300, 2300, 2300, 2300,
       4186, 4186, 4238, 4238, 4238, 4238, 4238, 4238, 4238, 4238, 4238, 4238, 4238, 4238, 4238, 4291, 4291, 4291, 4291, 4291, 4291, 4291, 4291, 4291, 4291, 4291, 4291, 4291, 4291, 4291, 4291, 4346, 4346, 4346, 4346, 4346, 4346, 4346, 4346, 4346, 4346, 4346, 4346, 4346, 4346, 4291, 4291, 4291, 4291, 4291, 4291, 4291, 4238, 4238, 4238, 4238, 4238, 4186, 4186, 4186, 4186, 4186, 4186, 4186, 4136, 0, 0, 0, 0, 0, 0, 2240, 2240, 2240, 0, 0, 0, 0, 0, 0, 0, 0, 2102, 2077, 2064, 2052, 2028, 2028, 2028, 2016, 2016, 2028, 2028, 2016, 2016, 2016, 2016, 2016, 2004, 2004, 2004, 1992, 1981, 1981, 1981, 1981, 1981, 1981, 1981, 1969, 1969, 1969, 1969, 1969, 1958, 1958, 1958, 1958, 1958, 1958, 1958, 1947, 1947, 1947, 1947, 1947, 1936, 1936, 1936, 1936, 1936, 1936, 1925, 1925, 1925, 1925, 1925, 1925, 1925, 1872, 1947, 0, 0, 0, 2016, 2004, 2016, 2016, 2004, 2004, 2004, 2004, 2004, 2004, 2004, 2016, 2016, 2016, 2016, 2016, 2016, 2016, 2016, 2028, 2040, 2040, 2052, 2052, 2064, 2077, 2077, 2077, 2077, 2089, 2089, 2089, 2089, 2102, 2102, 0, 0, 0, 0, 0, 0, 3690, 3690, 3690, 3690, 3690, 3730, 3730, 3730, 3730, 3771, 3771, 3771, 3771, 3771, 3771, 3771, 3730, 3730, 3730, 3730, 3690, 3730, 3730, 3730, 3690, 3690, 3690, 3690, 3650, 3650, 3650, 3650, 3650, 3612, 3612, 3574, 3574, 3537, 3537, 3537, 3537, 3537, 3537, 3537, 3537, 3537, 3537, 3537, 3537, 3537, 3537, 3501, 3501, 3501, 3501, 3501, 3501, 3501, 3501, 3501, 3465, 3501, 3501, 3465, 3465, 3431, 3431, 3431, 3431, 3431, 3431, 3431, 3397, 3397, 3397, 3397, 3397, 3397, 3363, 3363, 3363, 3363, 3363, 3363, 3363, 3363, 0, 0, 0, 0, 0, 0, 0, 0, 0, 0, 0, 0, 1958, 1958, 1958, 1958, 1958, 1947, 1947, 1947, 1947, 1947, 1936, 1936, 1936, 1936, 1936, 1936, 1947, 0, 3176, 3147, 3147, 3147, 3147, 3147, 3147, 3147, 3147, 3147, 3118, 3118, 3118, 3118, 3118, 3118, 3090, 3090, 3090, 3090, 3090, 3062, 3062, 3062, 3062, 3062, 3035, 3035, 3035, 3035, 3035, 3035, 3008, 3008, 3008, 3008, 3008, 3008, 3008, 3008, 2982, 2982, 2956, 2956, 2956, 2931, 2931, 2931, 2931, 2931, 2931, 2931, 2931, 2906, 2906, 2906, 2906, 2906, 2906, 2906, 2906, 2882, 2882, 2882, 2882, 2882, 2882, 2882, 2882, 2882, 2858, 2858, 2834, 2834, 2834, 2834, 2834, 2811, 2811, 2811, 2811, 2811, 2811, 2811, 2811, 2811, 2788, 2788, 2788, 2788, 2788, 2788, 2765, 2765, 2765, 2765, 2743, 2743, 2743, 2743, 2743, 2743, 2721, 2721, 2721, 2721, 2721, 2721, 2700, 2700, 2700, 2700, 2679, 2679, 2679, 2658, 2658, 2658, 2658, 2658, 2637, 2637, 2617, 2597, 2597, 2597, 2578, 0, 0, 0, 0, 0, 0, 2064, 2064, 2064, 2064, 2064, 2064, 2064, 2064, 2064, 2064, 2064, 0, 2558, 2578, 2578, 2578, 2578, 2558, 2558, 2558, 2558, 2539, 2539, 2539, 2539, 2539, 2521, 2521, 2521, 2521, 2521, 2521, 2521, 2521, 2502, 2502, 2502, 2502, 2502, 2502, 2484, 2484, 2484, 2484, 2484, 2484, 2466, 2466, 2466, 2466, 2448, 2448, 2448, 2448, 2448, 2448, 2448, 2431, 2431, 2431, 2431, 2431, 2431, 2431, 2414, 2414, 2414, 2397, 2397, 2397, 2397, 2397, 2380, 2380, 2380, 2380, 2380, 2380, 2380, 2380, 2380, 2380, 2364, 2364, 2364, 2364, 2364, 2364, 2364, 2364, 2364, 2348, 2348, 2348, 2348, 2348, 2348, 2332, 2332, 2332, 2316, 2316, 2316, 2316, 2316, 2300, 2300, 2300, 2300, 2300,
       4186, 4186, 4238, 4238, 4238, 4238, 4238, 4238, 4238, 4238, 4238, 4238, 4238, 4238, 4238, 4291, 4291, 4291, 4291, 4291, 4291, 4291, 4291, 4291, 4291, 4291, 4291, 4291, 4291, 4291, 4291, 4346, 4346, 4346, 4346, 4346, 4346, 4346, 4346, 4346, 4346, 4346, 4346, 4346, 4346, 4291, 4291, 4291, 4291, 4291, 4238, 4238, 4238, 4238, 4238, 4238, 4238, 4186, 4186, 4186, 4186, 4186, 4186, 4186, 4136, 0, 0, 0, 0, 0, 0, 0, 2240, 2240, 2225, 2225, 2197, 2183, 2183, 2183, 2155, 2129, 2115, 2077, 2064, 2052, 2040, 2040, 2028, 2028, 2028, 2028, 2028, 0, 0, 0, 2016, 2004, 2004, 1992, 1992, 1981, 1981, 1981, 1981, 1981, 1981, 1981, 1981, 1969, 1969, 1969, 1969, 1969, 1958, 1958, 1958, 1958, 1958, 1958, 1958, 1947, 1947, 1947, 1947, 1947, 1936, 1936, 1936, 1936, 1936, 1936, 1925, 1925, 1925, 1925, 1925, 1925, 1925, 1903, 0, 0, 0, 0, 2016, 2016, 2016, 2016, 2004, 2004, 1992, 2004, 2004, 2004, 2004, 2004, 2004, 2004, 2004, 2004, 2016, 2016, 2016, 2016, 2028, 2028, 2028, 2040, 2052, 2052, 2064, 2064, 2064, 2077, 2077, 2077, 2077, 2089, 2089, 0, 0, 0, 0, 0, 0, 3690, 3690, 3690, 3690, 3730, 3730, 3730, 3730, 3730, 3730, 3771, 3771, 3771, 3771, 3771, 3730, 3730, 3730, 3730, 3730, 3690, 3730, 3730, 3730, 3690, 3690, 3690, 3690, 3650, 3650, 3650, 3650, 3650, 3612, 3612, 3612, 3574, 3574, 3537, 3537, 3537, 3537, 3537, 3537, 3537, 3537, 3537, 3537, 3537, 3537, 3537, 3537, 3501, 3501, 3501, 3501, 3501, 3501, 3501, 3501, 3465, 3501, 3501, 3465, 3465, 3465, 3431, 3431, 3431, 3431, 3431, 3431, 3397, 3397, 3397, 3397, 3397, 3397, 3363, 3363, 3363, 3363, 3363, 3363, 0, 0, 0, 0, 0, 0, 0, 0, 0, 0, 0, 0, 0, 0, 1958, 1958, 1958, 1958, 1958, 1947, 1947, 1947, 1936, 1936, 1936, 1936, 1936, 1936, 1936, 1936, 1947, 0, 0, 3176, 3176, 3147, 3147, 3147, 3147, 3147, 3147, 3147, 3118, 3118, 3118, 3118, 3118, 3118, 3090, 3090, 3090, 3090, 3090, 3090, 3062, 3062, 3062, 3062, 3035, 3035, 3035, 3035, 3035, 3035, 3008, 3008, 3008, 3008, 3008, 3008, 3008, 3008, 2982, 2982, 2982, 2982, 2956, 2956, 2956, 2931, 2931, 2931, 2931, 2931, 2931, 2931, 2906, 2906, 2906, 2906, 2906, 2906, 2906, 2882, 2882, 2882, 2882, 2882, 2882, 2882, 2882, 2882, 2858, 2858, 2834, 2834, 2834, 2834, 2811, 2811, 2811, 2811, 2811, 2811, 2811, 2811, 2811, 2811, 2788, 2788, 2788, 2788, 2788, 2788, 2765, 2765, 2765, 2765, 2743, 2743, 2743, 2743, 2743, 2721, 2721, 2721, 2721, 2721, 2721, 2721, 2700, 2700, 2700, 2700, 2679, 2679, 2679, 2658, 2658, 2658, 2658, 2658, 2637, 2617, 2597, 2597, 2578, 2578, 2578, 2558, 0, 0, 0, 0, 0, 2064, 2064, 2064, 2064, 2064, 2064, 2064, 2064, 2064, 2064, 2064, 0, 2558, 2578, 2578, 2578, 2578, 2558, 2558, 2558, 2558, 2558, 2539, 2539, 2539, 2539, 2521, 2521, 2521, 2521, 2521, 2521, 2521, 2521, 2502, 2502, 2502, 2502, 2502, 2502, 2502, 2502, 2484, 2484, 2484, 2484, 2466, 2466, 2466, 2466, 2448, 2448, 2466, 2448, 2448, 2448, 2448, 2448, 2431, 2431, 2431, 2431, 2431, 2431, 2431, 2414, 2414, 2397, 2397, 2397, 2380, 2380, 2380, 2380, 2380, 2380, 2380, 2380, 2380, 2380, 2380, 2380, 2380, 2364, 2364, 2364, 2364, 2364, 2364, 2364, 2364, 2348, 2348, 2348, 2348, 2348, 2348, 2332, 2332, 2332, 2332, 2332, 2316, 2316, 2316, 2316, 2300, 2300, 2300, 2300,
       4186, 4186, 4238, 4238, 4238, 4238, 4238, 4238, 4238, 4238, 4238, 4238, 4238, 4238, 4238, 4291, 4291, 4291, 4291, 4291, 4291, 4291, 4291, 4291, 4291, 4291, 4291, 4291, 4291, 4291, 4291, 4346, 4346, 4346, 4346, 4346, 4346, 4346, 4402, 4402, 4346, 4346, 4346, 4346, 4291, 4291, 4291, 4291, 4291, 4238, 4238, 4238, 4238, 4238, 4238, 4238, 4238, 4186, 4186, 4186, 4186, 4186, 4186, 4186, 4136, 0, 0, 0, 0, 0, 0, 0, 2240, 2225, 2225, 2225, 2197, 2183, 2183, 2183, 2155, 2115, 2115, 2089, 2077, 2052, 0, 0, 0, 0, 0, 0, 2028, 0, 0, 0, 0, 0, 2004, 1992, 1992, 1992, 1981, 1981, 1981, 1981, 1981, 1981, 1981, 1969, 1969, 1969, 1969, 1969, 1958, 1958, 1958, 1958, 1958, 1958, 1958, 1958, 1947, 1947, 1947, 1947, 1936, 1936, 1936, 1936, 1936, 1936, 1925, 1925, 1925, 1925, 1914, 1925, 1925, 0, 0, 0, 0, 0, 0, 0, 0, 0, 0, 2004, 1992, 1992, 2004, 2004, 2004, 2004, 2004, 2004, 2004, 2004, 2004, 2016, 2016, 2016, 2016, 2016, 2028, 2028, 2028, 2040, 2040, 2052, 2052, 2052, 2064, 2064, 2052, 2052, 2052, 2077, 0, 0, 0, 0, 0, 3690, 3690, 3690, 3690, 3730, 3730, 3730, 3730, 3730, 3730, 3730, 3730, 3730, 3730, 3730, 3730, 3730, 3730, 3730, 3730, 3690, 3690, 3690, 3690, 3690, 3690, 3690, 3690, 3690, 3650, 3650, 3650, 3650, 3650, 3612, 3612, 3574, 3574, 3537, 3537, 3537, 3537, 3537, 3537, 3537, 3537, 3537, 3537, 3537, 3537, 3537, 3537, 3501, 3501, 3501, 3501, 3501, 3501, 3501, 3501, 3465, 3501, 3501, 3465, 3465, 3465, 3465, 3431, 3431, 3431, 3431, 3431, 3397, 3397, 3397, 3397, 3397, 3397, 3363, 3363, 3363, 3363, 3363, 3363, 0, 0, 0, 0, 0, 0, 0, 0, 0, 0, 0, 0, 0, 0, 1958, 1958, 1958, 1958, 1958, 1947, 1947, 1936, 1936, 1936, 1936, 1936, 1936, 1936, 1936, 1936, 1947, 0, 0, 3176, 3176, 3147, 3147, 3147, 3147, 3147, 3147, 3147, 3118, 3118, 3118, 3118, 3118, 3118, 3090, 3090, 3090, 3090, 3090, 3062, 3062, 3062, 3062, 3062, 3035, 3035, 3035, 3035, 3035, 3035, 3008, 3008, 3008, 3008, 3008, 3008, 3008, 3008, 2982, 2982, 2982, 2982, 2956, 2956, 2956, 2956, 2931, 2931, 2931, 2931, 2931, 2931, 2906, 2906, 2906, 2906, 2906, 2906, 2906, 2882, 2882, 2882, 2882, 2882, 2882, 2882, 2882, 2882, 2858, 2858, 2834, 2834, 2834, 2834, 2811, 2811, 2811, 2811, 2811, 2811, 2811, 2811, 2811, 2811, 2788, 2788, 2788, 2788, 2788, 2765, 2765, 2765, 2765, 2743, 2743, 2743, 2743, 2743, 2743, 2721, 2721, 2721, 2721, 2721, 2721, 2721, 2700, 2700, 2700, 2700, 2700, 2679, 2679, 2679, 2658, 2658, 2658, 2658, 2637, 2617, 2597, 2597, 2578, 2578, 2578, 0, 0, 0, 0, 0, 0, 2064, 2064, 2064, 2064, 2064, 2064, 2064, 2064, 2064, 2064, 2064, 0, 2558, 2578, 2578, 2578, 2578, 2558, 2558, 2558, 2558, 2558, 2558, 2539, 2539, 2539, 2539, 2539, 2521, 2521, 2521, 2521, 2521, 2521, 2502, 2502, 2502, 2502, 2502, 2502, 2502, 2502, 2484, 2484, 2484, 2484, 2466, 2466, 2466, 2466, 2466, 2466, 2466, 2448, 2448, 2448, 2448, 2448, 2448, 2448, 2431, 2431, 2431, 2431, 2431, 2414, 2414, 2397, 2397, 2397, 2380, 2380, 2380, 2380, 2380, 2380, 2380, 2380, 2380, 2380, 2380, 2380, 2380, 2364, 2364, 2364, 2364, 2364, 2364, 2364, 2364, 2348, 2348, 2348, 2348, 2348, 2348, 2332, 2332, 2332, 2332, 2332, 2332, 2316, 2316, 2316, 2316, 2300, 2300, 2300,
       4186, 4238, 4238, 4238, 4238, 4238, 4238, 4238, 4238, 4238, 4238, 4238, 4238, 4238, 4238, 4291, 4291, 4291, 4291, 4291, 4291, 4291, 4291, 4291, 4291, 4291, 4291, 4291, 4346, 4346, 4346, 4346, 4346, 4346, 4346, 4346, 4346, 4346, 4402, 4402, 4346, 4346, 4346, 4346, 4346, 4346, 4291, 4291, 4291, 4291, 4238, 4238, 4238, 4238, 4238, 4238, 4238, 4186, 4186, 4186, 4186, 4186, 4186, 4186, 4136, 0, 0, 0, 0, 0, 0, 0, 0, 2240, 2225, 2211, 2197, 2183, 2183, 2169, 2142, 2115, 2115, 2115, 0, 0, 0, 0, 0, 0, 0, 0, 0, 0, 0, 0, 0, 0, 0, 1981, 2004, 1992, 1981, 1981, 1981, 2028, 2028, 1981, 2028, 2040, 1969, 1958, 1958, 1958, 1947, 1958, 1958, 1958, 1958, 1958, 1958, 1958, 1947, 1947, 1947, 1947, 1936, 1936, 1936, 1936, 1936, 1925, 1925, 1925, 1925, 1925, 1914, 1914, 1914, 0, 0, 0, 0, 0, 0, 0, 0, 0, 0, 2004, 2004, 2004, 2004, 2004, 2004, 2004, 2004, 2004, 1992, 2004, 2004, 2004, 2004, 2016, 2016, 2016, 2028, 2016, 2028, 2028, 2028, 2040, 2040, 2040, 2040, 2040, 2028, 2028, 2028, 2028, 0, 0, 0, 0, 0, 0, 3690, 3690, 3690, 3730, 3730, 3730, 3730, 3730, 3730, 3730, 3730, 3730, 3730, 3730, 3730, 3730, 3730, 3730, 3730, 3690, 3690, 3690, 3690, 3690, 3690, 3690, 3690, 3690, 3650, 3650, 3650, 3650, 3650, 3650, 3612, 3574, 3574, 3537, 3537, 3537, 3537, 3537, 3537, 3537, 3537, 3537, 3537, 3537, 3537, 3537, 3537, 3501, 3501, 3501, 3501, 3501, 3501, 3501, 3501, 3501, 3501, 3501, 3465, 3465, 3465, 3465, 3431, 3431, 3431, 3431, 3431, 3431, 3397, 3397, 3397, 3397, 3397, 3397, 3363, 3363, 3363, 3363, 3363, 0, 0, 0, 0, 0, 0, 0, 0, 0, 0, 0, 0, 0, 1925, 1958, 1958, 1958, 1958, 1947, 1947, 1947, 1936, 1936, 1936, 1936, 1936, 1936, 1936, 1936, 1936, 1936, 0, 0, 3176, 3176, 3176, 3147, 3147, 3147, 3147, 3147, 3147, 3118, 3118, 3118, 3118, 3118, 3118, 3090, 3090, 3090, 3090, 3090, 3062, 3062, 3062, 3062, 3035, 3035, 3035, 3035, 3035, 3035, 3008, 3008, 3008, 3008, 3008, 3008, 3008, 3008, 3008, 2982, 2982, 2982, 2982, 2956, 2956, 2956, 2956, 2931, 2931, 2931, 2931, 2931, 2931, 2906, 2906, 2906, 2906, 2906, 2906, 2906, 2906, 2882, 2882, 2882, 2882, 2882, 2882, 2882, 2858, 2858, 2858, 2834, 2834, 2834, 2834, 2811, 2811, 2811, 2811, 2811, 2811, 2811, 2811, 2811, 2811, 2788, 2788, 2788, 2788, 2788, 2765, 2765, 2765, 2743, 2743, 2743, 2743, 2743, 2743, 2743, 2721, 2721, 2721, 2721, 2721, 2721, 2721, 2700, 2700, 2700, 2700, 2700, 2700, 2679, 2679, 2658, 2658, 2658, 2658, 2637, 2617, 2617, 2597, 2578, 2578, 2578, 0, 0, 0, 0, 0, 0, 2064, 2064, 2064, 2064, 2064, 2064, 2064, 2064, 2064, 2064, 2064, 0, 2558, 2578, 2578, 2578, 2558, 2558, 2558, 2558, 2558, 2558, 2539, 2539, 2539, 2539, 2539, 2539, 2521, 2521, 2521, 2521, 2521, 2521, 2502, 2502, 2502, 2502, 2502, 2502, 2502, 2502, 2484, 2484, 2484, 2484, 2466, 2466, 2466, 2466, 2466, 2466, 2466, 2448, 2448, 2448, 2448, 2448, 2448, 2431, 2431, 2431, 2431, 2431, 2414, 2414, 2414, 2414, 2397, 2397, 2380, 2380, 2380, 2380, 2380, 2364, 2380, 2380, 2380, 2380, 2380, 2380, 2380, 2380, 2364, 2364, 2364, 2364, 2364, 2364, 2364, 2348, 2348, 2348, 2348, 2348, 2348, 2332, 2332, 2332, 2332, 2332, 2332, 2332, 2316, 2316, 2316, 2300, 2300, 2300,
       4186, 4238, 4238, 4238, 4238, 4238, 4238, 4238, 4238, 4238, 4238, 4238, 4238, 4238, 4238, 4291, 4291, 4291, 4291, 4291, 4291, 4291, 4291, 4291, 4291, 4291, 4291, 4291, 4346, 4346, 4346, 4346, 4346, 4346, 4346, 4346, 4346, 4346, 4346, 4346, 4346, 4346, 4346, 4346, 4346, 4346, 4291, 4291, 4291, 4291, 4238, 4238, 4238, 4238, 4238, 4238, 4186, 4186, 4186, 4186, 4186, 4186, 4186, 4186, 4136, 0, 0, 0, 0, 0, 0, 0, 0, 0, 0, 0, 2197, 2183, 2183, 0, 0, 0, 0, 0, 0, 0, 0, 0, 0, 0, 0, 0, 0, 0, 0, 0, 0, 0, 0, 0, 1958, 2004, 1992, 1981, 0, 0, 0, 0, 0, 0, 1992, 1936, 1936, 1936, 1936, 1947, 1947, 1947, 1947, 1958, 1969, 0, 0, 0, 1992, 0, 0, 1958, 1936, 1925, 1925, 1925, 1925, 1925, 1925, 1925, 1914, 1914, 1914, 0, 0, 0, 0, 0, 0, 0, 0, 0, 0, 0, 2004, 2004, 2004, 2004, 1992, 2004, 2004, 2004, 1992, 1992, 2004, 2004, 2004, 2004, 2004, 2016, 2016, 2016, 2016, 2016, 2016, 2028, 2028, 2028, 2028, 2028, 2028, 2028, 2028, 2028, 0, 0, 0, 0, 0, 0, 3690, 3690, 3730, 3730, 3730, 3730, 3730, 3730, 3730, 3730, 3730, 3730, 3730, 3730, 3730, 3730, 3730, 3730, 3730, 3730, 3730, 3730, 3730, 3690, 3690, 3690, 3690, 3690, 3690, 3650, 3650, 3650, 3650, 3650, 3612, 3612, 3574, 3574, 3537, 3537, 3537, 3537, 3537, 3537, 3537, 3537, 3537, 3537, 3537, 3537, 3537, 3537, 3501, 3501, 3501, 3501, 3501, 3501, 3501, 3501, 3501, 3501, 3501, 3465, 3465, 3465, 3431, 3431, 3431, 3431, 3431, 3431, 3397, 3397, 3397, 3397, 3397, 3363, 3363, 3363, 3363, 3363, 3330, 3298, 0, 0, 0, 0, 0, 0, 0, 0, 0, 0, 0, 0, 1947, 1947, 1947, 1958, 1958, 1947, 1947, 1947, 1936, 1936, 1936, 1936, 1936, 1936, 1936, 1936, 1936, 1958, 0, 0, 3176, 3176, 3176, 3176, 3147, 3147, 3147, 3147, 3147, 3118, 3118, 3118, 3118, 3118, 3118, 3090, 3090, 3090, 3090, 3062, 3062, 3062, 3062, 3062, 3035, 3035, 3035, 3035, 3035, 3035, 3008, 3008, 3008, 3008, 3008, 3008, 3008, 3008, 3008, 2982, 2982, 2982, 2982, 2956, 2956, 2956, 2956, 2956, 2931, 2931, 2931, 2931, 2931, 2931, 2906, 2906, 2906, 2906, 2906, 2906, 2906, 2882, 2882, 2882, 2882, 2882, 2882, 2882, 2858, 2858, 2858, 2834, 2834, 2834, 2834, 2834, 2811, 2811, 2811, 2811, 2811, 2811, 2811, 2811, 2811, 2788, 2788, 2788, 2788, 2788, 2765, 2765, 2743, 2743, 2743, 2743, 2743, 2743, 2743, 2721, 2721, 2721, 2721, 2721, 2721, 2721, 2721, 2700, 2700, 2700, 2700, 2700, 2700, 2679, 2679, 2658, 2658, 2658, 2658, 2637, 2637, 2617, 2597, 2578, 2578, 2578, 0, 0, 0, 0, 2064, 2064, 2064, 2064, 2064, 2064, 2064, 2064, 2064, 2052, 2064, 2064, 2064, 0, 2558, 2578, 2578, 2578, 2558, 2558, 2558, 2558, 2558, 2558, 2539, 2539, 2539, 2539, 2539, 2539, 2539, 2521, 2521, 2521, 2521, 2502, 2502, 2502, 2502, 2502, 2502, 2502, 2502, 2502, 2484, 2484, 2484, 2484, 2484, 2484, 2466, 2466, 2466, 2466, 2466, 2448, 2448, 2448, 2448, 2431, 2431, 2431, 2431, 2431, 2431, 2431, 2414, 2414, 2414, 2397, 2397, 2380, 2380, 2380, 2380, 2380, 2380, 2364, 2364, 2364, 2380, 2380, 2380, 2380, 2364, 2364, 2364, 2364, 2364, 2364, 2364, 2364, 2364, 2348, 2348, 2348, 2348, 2348, 2348, 2332, 2332, 2332, 2332, 2332, 2332, 2332, 2332, 2316, 2316, 2316, 2300, 2300,
       4186, 4238, 4238, 4238, 4238, 4238, 4238, 4238, 4238, 4238, 4238, 4291, 4238, 4238, 4238, 4291, 4291, 4291, 4291, 4291, 4291, 4291, 4291, 4291, 4291, 4291, 4291, 4291, 4346, 4346, 4346, 4346, 4346, 4346, 4346, 4346, 4346, 4346, 4346, 4346, 4346, 4346, 4346, 4346, 4346, 4291, 4291, 4291, 4291, 4291, 4238, 4238, 4238, 4238, 4238, 4238, 4186, 4186, 4186, 4186, 4186, 4186, 4186, 4136, 0, 0, 0, 0, 0, 0, 0, 0, 0, 0, 0, 0, 2211, 2197, 0, 0, 0, 0, 0, 0, 0, 0, 0, 0, 0, 0, 0, 0, 0, 0, 0, 0, 0, 0, 0, 0, 0, 0, 0, 0, 0, 0, 0, 0, 0, 0, 0, 1936, 1936, 1936, 1936, 1936, 1947, 1947, 0, 0, 0, 0, 0, 0, 0, 0, 0, 0, 1936, 1925, 1925, 1925, 1925, 1914, 1914, 1914, 1914, 1903, 1903, 1947, 2089, 2142, 2142, 2142, 2142, 2142, 2142, 2129, 0, 0, 0, 0, 0, 2004, 1992, 2004, 2004, 2004, 1992, 2004, 2004, 2004, 2004, 2004, 2004, 2016, 2016, 2016, 2016, 2016, 2016, 2016, 2028, 2028, 2016, 2016, 2016, 2028, 2028, 2028, 2016, 0, 0, 0, 0, 0, 3730, 3730, 3730, 3730, 3730, 3730, 3730, 3730, 3730, 3730, 3730, 3730, 3730, 3730, 3730, 3730, 3730, 3730, 3730, 3730, 3730, 3730, 3730, 3690, 3690, 3690, 3690, 3690, 3690, 3650, 3650, 3650, 3650, 3650, 3612, 3612, 3574, 3574, 3537, 3537, 3537, 3537, 3537, 3537, 3537, 3537, 3537, 3537, 3537, 3537, 3537, 3537, 3501, 3501, 3501, 3501, 3501, 3501, 3501, 3501, 3501, 3501, 3501, 3465, 3465, 3465, 3465, 3465, 3431, 3431, 3431, 3431, 3397, 3397, 3397, 3397, 3397, 3363, 3363, 3363, 3363, 3330, 3298, 3330, 0, 0, 0, 0, 0, 0, 0, 0, 0, 0, 0, 0, 1947, 1947, 1947, 1947, 1947, 1947, 1947, 1947, 1947, 1936, 1936, 1936, 1936, 1936, 1936, 1936, 1936, 1958, 0, 3176, 3176, 3176, 3176, 3176, 3147, 3147, 3147, 3147, 3147, 3118, 3118, 3118, 3118, 3118, 3090, 3090, 3090, 3090, 3062, 3062, 3062, 3062, 3062, 3035, 3035, 3035, 3035, 3035, 3035, 3035, 3008, 3008, 3008, 3008, 3008, 3008, 3008, 3008, 2982, 2982, 2982, 2982, 2982, 2982, 2956, 2956, 2956, 2956, 2956, 2956, 2956, 2931, 2931, 2931, 2931, 2906, 2906, 2906, 2906, 2906, 2906, 2906, 2906, 2882, 2882, 2882, 2882, 2882, 2858, 2858, 2858, 2834, 2834, 2834, 2834, 2834, 2811, 2811, 2811, 2811, 2811, 2811, 2811, 2811, 2788, 2788, 2788, 2788, 2788, 2765, 2765, 2765, 2743, 2743, 2743, 2743, 2743, 2743, 2743, 2721, 2721, 2721, 2721, 2721, 2721, 2721, 2721, 2700, 2700, 2700, 2700, 2700, 2700, 2679, 2658, 2658, 2658, 2658, 2658, 2637, 2617, 2617, 2597, 2578, 2578, 2578, 2558, 0, 0, 0, 0, 2064, 2064, 2064, 2064, 2064, 2064, 2064, 2064, 2064, 2064, 2064, 2064, 0, 2539, 2578, 2578, 2578, 2558, 2558, 2558, 2558, 2558, 2558, 2558, 2539, 2539, 2539, 2539, 2539, 2539, 2521, 2521, 2521, 2502, 2502, 2502, 2502, 2502, 2502, 2502, 2502, 2502, 2484, 2484, 2484, 2484, 2484, 2484, 2484, 2466, 2466, 2466, 2466, 2466, 2448, 2448, 2448, 2448, 2448, 2448, 2431, 2431, 2431, 2431, 2414, 2414, 2414, 2414, 2397, 2397, 2397, 2397, 2380, 2380, 2380, 2380, 2380, 2380, 2364, 2364, 2380, 2380, 2380, 2364, 2364, 2364, 2364, 2364, 2364, 2364, 2364, 2364, 2348, 2348, 2348, 2348, 2348, 2348, 2348, 2332, 2332, 2332, 2332, 2332, 2332, 2332, 2316, 2316, 2316, 2300, 2300,
       4238, 4238, 4238, 4238, 4238, 4238, 4238, 4238, 4238, 4291, 4291, 4291, 4238, 4238, 4291, 4291, 4291, 4291, 4291, 4291, 4291, 4291, 4291, 4291, 4291, 4291, 4291, 4291, 4291, 4346, 4346, 4346, 4346, 4346, 4346, 4346, 4346, 4346, 4346, 4346, 4346, 4346, 4346, 4291, 4291, 4291, 4291, 4291, 4291, 4291, 4238, 4238, 4238, 4238, 4238, 4238, 4186, 4186, 4186, 4186, 4186, 4186, 4136, 4136, 0, 0, 0, 0, 0, 0, 0, 0, 0, 0, 0, 0, 2211, 0, 0, 0, 0, 0, 0, 0, 0, 0, 0, 0, 0, 0, 0, 0, 0, 0, 0, 0, 0, 0, 0, 0, 0, 0, 0, 0, 0, 0, 0, 0, 0, 0, 0, 1958, 0, 0, 0, 1992, 1969, 0, 0, 0, 2255, 2255, 2255, 2270, 2270, 2270, 2270, 2255, 1981, 1925, 1925, 1925, 1925, 1914, 1914, 1914, 1914, 1914, 1903, 0, 2142, 2155, 2155, 2142, 2142, 2142, 2142, 2142, 0, 0, 0, 0, 0, 0, 0, 2004, 2016, 2004, 2004, 2004, 2004, 2004, 2004, 2004, 2004, 2004, 2004, 2004, 2004, 2016, 2016, 2016, 2016, 2016, 2016, 2016, 2016, 2016, 2028, 2016, 2004, 0, 0, 0, 0, 0, 3730, 3730, 3856, 3730, 3730, 3730, 3730, 3730, 3730, 3730, 3730, 3730, 3730, 3730, 3730, 3730, 3730, 3730, 3730, 3730, 3730, 3730, 3730, 3690, 3690, 3690, 3690, 3690, 3690, 3690, 3690, 3650, 3650, 3650, 3650, 3612, 3574, 3537, 3537, 3537, 3537, 3537, 3537, 3537, 3537, 3537, 3537, 3537, 3537, 3537, 3537, 3501, 3501, 3501, 3501, 3501, 3501, 3501, 3501, 3501, 3501, 3501, 3465, 3465, 3465, 3465, 3465, 3465, 3431, 3431, 3431, 3431, 3397, 3397, 3397, 3397, 3397, 3363, 3363, 3363, 3330, 3298, 3267, 3298, 0, 0, 0, 0, 0, 0, 0, 0, 0, 0, 0, 0, 1947, 1947, 1947, 1947, 1958, 1947, 1947, 1947, 1947, 1936, 1936, 1936, 1936, 1936, 1936, 1936, 1936, 1936, 2028, 3176, 3176, 3176, 3147, 3147, 3147, 3147, 3147, 3147, 3118, 3118, 3118, 3118, 3118, 3118, 3090, 3090, 3062, 3062, 3062, 3062, 3062, 3062, 3062, 3035, 3035, 3035, 3035, 3035, 3035, 3035, 3008, 3008, 3008, 3008, 3008, 3008, 3008, 3008, 2982, 2982, 2982, 2982, 2982, 2982, 2956, 2956, 2956, 2956, 2956, 2956, 2956, 2931, 2931, 2931, 2931, 2906, 2906, 2906, 2906, 2906, 2906, 2906, 2906, 2906, 2882, 2882, 2882, 2882, 2858, 2858, 2858, 2834, 2834, 2834, 2834, 2834, 2811, 2811, 2811, 2811, 2811, 2811, 2811, 2811, 2811, 2788, 2788, 2788, 2788, 2765, 2765, 2765, 2743, 2743, 2743, 2743, 2743, 2743, 2743, 2721, 2721, 2721, 2721, 2721, 2721, 2721, 2721, 2700, 2700, 2700, 2700, 2700, 2679, 2679, 2679, 2658, 2658, 2658, 2658, 2637, 2637, 2617, 2597, 2597, 2578, 2578, 2558, 2679, 0, 0, 0, 2064, 2064, 2064, 2064, 2064, 2064, 2064, 2064, 2064, 2064, 2064, 2064, 0, 2539, 2578, 2578, 2578, 2558, 2558, 2558, 2558, 2558, 2558, 2558, 2539, 2539, 2539, 2539, 2539, 2539, 2539, 2521, 2521, 2521, 2521, 2502, 2502, 2502, 2502, 2502, 2502, 2484, 2484, 2484, 2484, 2484, 2484, 2484, 2484, 2466, 2466, 2448, 2448, 2448, 2448, 2448, 2448, 2448, 2448, 2448, 2431, 2431, 2431, 2431, 2431, 2414, 2414, 2414, 2397, 2397, 2397, 2397, 2380, 2380, 2380, 2380, 2380, 2380, 2364, 2364, 2380, 2380, 2364, 2364, 2364, 2364, 2364, 2364, 2364, 2364, 2364, 2348, 2348, 2348, 2348, 2348, 2348, 2348, 2348, 2332, 2332, 2332, 2332, 2332, 2332, 2332, 2332, 2332, 2316, 2316, 2300,
       4238, 4238, 4238, 4238, 4238, 4238, 4238, 4238, 4238, 4291, 4291, 4291, 4238, 4291, 4291, 4291, 4291, 4291, 4291, 4291, 4291, 4291, 4291, 4291, 4291, 4291, 4291, 4291, 4291, 4291, 4346, 4346, 4346, 4346, 4346, 4346, 4346, 4346, 4346, 4346, 4346, 4346, 4346, 4291, 4291, 4291, 4291, 4291, 4291, 4238, 4238, 4238, 4238, 4238, 4238, 4186, 4186, 4186, 4186, 4186, 4186, 4186, 0, 0, 0, 0, 0, 0, 0, 0, 0, 0, 0, 0, 0, 0, 0, 0, 0, 0, 0, 0, 0, 0, 0, 0, 0, 0, 0, 0, 0, 0, 0, 0, 0, 0, 0, 0, 0, 0, 0, 0, 0, 0, 0, 0, 0, 0, 0, 0, 0, 2183, 2183, 2197, 2211, 2211, 2225, 2225, 0, 0, 2255, 2255, 2255, 2255, 2255, 2255, 2255, 2255, 0, 0, 1925, 1914, 1914, 1914, 1914, 1914, 1914, 1903, 1903, 0, 2169, 2155, 2155, 2155, 2155, 2155, 2155, 2155, 2142, 0, 0, 0, 0, 0, 0, 0, 2016, 2016, 2004, 2004, 2004, 2004, 2004, 2004, 2004, 2004, 2004, 2004, 2004, 2004, 2004, 2016, 2016, 2016, 2016, 2016, 2016, 2016, 2016, 2016, 2004, 0, 0, 0, 0, 0, 0, 0, 0, 3730, 3730, 3730, 3730, 3730, 3730, 3730, 3730, 3730, 3730, 3730, 3730, 3730, 3730, 3730, 3730, 3730, 3730, 3730, 3730, 3690, 3690, 3690, 3690, 3690, 3690, 3690, 3690, 3650, 3650, 3650, 3650, 3612, 3574, 3537, 3537, 3537, 3537, 3537, 3537, 3537, 3537, 3537, 3537, 3537, 3537, 3537, 3537, 3501, 3501, 3501, 3501, 3501, 3501, 3501, 3465, 3465, 3465, 3465, 3465, 3465, 3465, 3465, 3431, 3431, 3431, 3431, 3431, 3397, 3397, 3397, 3397, 3397, 3397, 3363, 3363, 3363, 3330, 3298, 3267, 3267, 3267, 0, 0, 0, 0, 0, 0, 0, 0, 0, 0, 0, 1947, 1947, 1947, 1947, 1947, 1947, 1947, 1947, 1947, 1936, 1936, 1947, 1947, 1936, 1936, 1936, 1936, 1936, 2016, 3176, 3176, 3147, 3147, 3147, 3147, 3147, 3147, 3147, 3118, 3118, 3118, 3118, 3118, 3118, 3090, 3090, 3090, 3062, 3062, 3062, 3062, 3062, 3062, 3062, 3035, 3035, 3035, 3035, 3035, 3035, 3008, 3008, 3008, 3008, 3008, 3008, 3008, 3008, 2982, 2982, 2982, 2982, 2982, 2956, 2956, 2956, 2956, 2956, 2956, 2956, 2931, 2931, 2931, 2931, 2906, 2906, 2906, 2906, 2906, 2906, 2906, 2906, 2906, 2906, 2882, 2882, 2882, 2882, 2858, 2858, 2858, 2834, 2834, 2834, 2834, 2834, 2834, 2811, 2811, 2811, 2811, 2811, 2811, 2811, 2811, 2788, 2788, 2788, 2788, 2765, 2765, 2765, 2743, 2743, 2743, 2743, 2743, 2743, 2743, 2721, 2721, 2721, 2721, 2721, 2721, 2721, 2721, 2700, 2700, 2700, 2700, 2700, 2700, 2679, 2679, 2679, 2658, 2658, 2658, 2637, 2637, 2617, 2617, 2597, 2597, 2578, 2578, 2700, 0, 0, 0, 2064, 2064, 2064, 2064, 2064, 2064, 2064, 2064, 2064, 2064, 2064, 2064, 0, 2502, 2578, 2558, 2558, 2558, 2558, 2558, 2558, 2558, 2558, 2558, 2539, 2539, 2539, 2539, 2539, 2539, 2539, 2539, 2521, 2521, 2521, 2521, 2502, 2502, 2502, 2502, 2484, 2484, 2484, 2484, 2484, 2484, 2484, 2484, 2466, 2466, 2448, 2448, 2448, 2448, 2448, 2448, 2448, 2448, 2448, 2448, 2431, 2431, 2431, 2431, 2431, 2414, 2414, 2414, 2397, 2397, 2380, 2380, 2380, 2380, 2380, 2380, 2380, 2380, 2364, 2364, 2364, 2364, 2364, 2364, 2364, 2364, 2364, 2364, 2364, 2364, 2364, 2348, 2348, 2348, 2348, 2348, 2348, 2348, 2348, 2332, 2332, 2332, 2332, 2332, 2332, 2332, 2332, 2332, 2316, 2316, 2316,
       4238, 4238, 4238, 4238, 4238, 4238, 4238, 4238, 4238, 4291, 4291, 4291, 4291, 4291, 4291, 4291, 4291, 4291, 4291, 4291, 4291, 4291, 4291, 4291, 4291, 4291, 4291, 4291, 4291, 4291, 4346, 4346, 4346, 4346, 4346, 4346, 4346, 4346, 4346, 4346, 4346, 4346, 4346, 4346, 4291, 4291, 4291, 4291, 4291, 4238, 4238, 4238, 4238, 4238, 4238, 4186, 4186, 4186, 4186, 4186, 4186, 4136, 0, 0, 0, 0, 0, 0, 0, 0, 0, 0, 0, 0, 0, 0, 0, 0, 0, 0, 0, 0, 0, 0, 0, 0, 0, 0, 0, 0, 0, 0, 0, 0, 0, 0, 0, 0, 0, 0, 0, 0, 0, 0, 0, 0, 0, 0, 2169, 0, 0, 2183, 2197, 2197, 2197, 2197, 2225, 2225, 0, 0, 2255, 2255, 2255, 2255, 2255, 2255, 2255, 2255, 0, 0, 1914, 1914, 1914, 1914, 1914, 1914, 1903, 1903, 1893, 0, 2169, 2155, 2155, 2155, 2155, 2155, 2155, 2155, 2155, 2155, 2155, 2155, 2142, 0, 0, 0, 2016, 2016, 2004, 2004, 2004, 2004, 2004, 2004, 2004, 2004, 2004, 2004, 2004, 2004, 2004, 2016, 2016, 2004, 2004, 2004, 2004, 2004, 2016, 2016, 1992, 0, 0, 0, 0, 0, 0, 0, 0, 3730, 3730, 3730, 3730, 3730, 3730, 3730, 3730, 3730, 3730, 3730, 3730, 3730, 3730, 3730, 3730, 3730, 3730, 3730, 3730, 3730, 3730, 3690, 3690, 3690, 3690, 3690, 3690, 3650, 3650, 3650, 3612, 3612, 3574, 3537, 3537, 3537, 3537, 3537, 3537, 3537, 3537, 3537, 3537, 3537, 3537, 3537, 3537, 3501, 3501, 3501, 3501, 3501, 3501, 3465, 3465, 3465, 3465, 3465, 3465, 3431, 3431, 3431, 3431, 3431, 3431, 3431, 3397, 3397, 3397, 3397, 3397, 3397, 3363, 3363, 3363, 3363, 3330, 3298, 3298, 0, 3267, 3267, 3267, 0, 0, 0, 0, 0, 0, 0, 0, 0, 1936, 1947, 1947, 1947, 1947, 1947, 1947, 1947, 1947, 1936, 1936, 1947, 1947, 1936, 1936, 1936, 1936, 1936, 1992, 0, 3176, 3176, 3147, 3147, 3147, 3147, 3147, 3147, 3147, 3118, 3118, 3118, 3118, 3118, 3090, 3090, 3090, 3090, 3062, 3062, 3062, 3062, 3062, 3062, 3035, 3035, 3035, 3035, 3035, 3035, 3035, 3035, 3008, 3008, 3008, 3008, 3008, 3008, 2982, 2982, 2982, 2982, 2982, 2956, 2956, 2956, 2956, 2956, 2956, 2956, 2931, 2931, 2931, 2931, 2931, 2906, 2906, 2906, 2906, 2906, 2906, 2906, 2906, 2882, 2882, 2882, 2882, 2882, 2858, 2858, 2858, 2834, 2834, 2834, 2834, 2834, 2834, 2811, 2811, 2811, 2811, 2811, 2811, 2811, 2811, 2788, 2788, 2788, 2788, 2765, 2765, 2765, 2743, 2743, 2743, 2743, 2743, 2743, 2743, 2721, 2721, 2721, 2721, 2721, 2721, 2721, 2721, 2700, 2700, 2700, 2700, 2700, 2679, 2679, 2679, 2658, 2658, 2658, 2637, 2637, 2637, 2617, 2617, 2597, 2597, 2578, 2578, 2679, 2700, 0, 0, 2077, 2077, 2064, 2064, 2064, 2064, 2064, 2064, 2064, 2064, 2064, 2064, 2064, 0, 2558, 2558, 2558, 2558, 2558, 2558, 2558, 2558, 2558, 2558, 2539, 2539, 2539, 2539, 2539, 2539, 2539, 2539, 2521, 2521, 2521, 2521, 2502, 2502, 2502, 2502, 2484, 2484, 2484, 2484, 2484, 2484, 2484, 2466, 2466, 2466, 2448, 2448, 2448, 2448, 2448, 2466, 2448, 2448, 2448, 2448, 2448, 2431, 2431, 2431, 2431, 2414, 2414, 2414, 2397, 2397, 2380, 2380, 2380, 2364, 2364, 2364, 2364, 2364, 2364, 2364, 2364, 2364, 2364, 2364, 2364, 2364, 2364, 2364, 2364, 2364, 2364, 2348, 2348, 2348, 2348, 2348, 2348, 2332, 2332, 2332, 2332, 2332, 2332, 2332, 2332, 2332, 2332, 2332, 2316, 2316, 2316,
       4238, 4238, 4238, 4238, 4238, 4238, 4291, 4291, 4291, 4291, 4291, 4291, 4291, 4291, 4291, 4291, 4291, 4291, 4291, 4291, 4291, 4291, 4291, 4291, 4291, 4291, 4291, 4291, 4346, 4346, 4346, 4346, 4346, 4346, 4346, 4346, 4346, 4346, 4346, 4346, 4346, 4346, 4346, 4346, 4291, 4291, 4291, 4291, 4291, 4238, 4238, 4238, 4238, 4238, 4238, 4186, 4186, 4186, 4186, 4186, 4186, 4136, 0, 0, 0, 0, 0, 0, 0, 0, 0, 0, 0, 0, 0, 0, 0, 0, 0, 0, 0, 0, 0, 0, 0, 0, 0, 0, 0, 0, 0, 0, 0, 0, 0, 0, 0, 0, 0, 0, 0, 0, 0, 0, 0, 0, 0, 0, 2155, 2155, 2169, 2183, 2183, 2183, 2183, 2197, 2211, 2225, 2225, 0, 2240, 2255, 2240, 2240, 2255, 2255, 2255, 2255, 0, 0, 0, 1903, 1903, 1914, 1914, 1903, 1903, 1893, 1893, 0, 2169, 2155, 2155, 2155, 2155, 2155, 2155, 2155, 2155, 2155, 2155, 2155, 2155, 0, 0, 0, 0, 2028, 2016, 2016, 2016, 2004, 2004, 2004, 2004, 2004, 2004, 2004, 1992, 2004, 2004, 2004, 2004, 2004, 2004, 2004, 1992, 1992, 2004, 2016, 1992, 1981, 1981, 1981, 1969, 0, 0, 0, 0, 0, 3730, 3730, 3730, 3730, 3730, 3730, 3730, 3730, 3730, 3730, 3730, 3730, 3730, 3730, 3730, 3730, 3730, 3730, 3730, 3730, 3730, 3690, 3690, 3690, 3690, 3690, 3690, 3650, 3650, 3650, 3612, 3612, 3574, 3574, 3537, 3537, 3537, 3537, 3537, 3537, 3537, 3537, 3537, 3537, 3537, 3537, 3537, 3501, 3501, 3501, 3501, 3501, 3501, 3465, 3465, 3465, 3465, 3465, 3465, 3431, 3431, 3431, 3431, 3431, 3431, 3397, 3397, 3397, 3397, 3397, 3397, 3397, 3397, 3363, 3363, 3363, 3330, 3298, 0, 0, 3267, 3267, 3267, 0, 0, 0, 0, 0, 0, 0, 0, 0, 1903, 1958, 1947, 1947, 1947, 1947, 1947, 1947, 1947, 1936, 1936, 1936, 1936, 1936, 1936, 1936, 1936, 1936, 1969, 0, 3176, 3176, 3176, 3147, 3147, 3147, 3147, 3147, 3147, 3118, 3118, 3118, 3118, 3118, 3090, 3090, 3090, 3090, 3062, 3062, 3062, 3062, 3062, 3035, 3035, 3035, 3035, 3035, 3035, 3035, 3035, 3035, 3008, 3008, 3008, 3008, 3008, 2982, 2982, 2982, 2982, 2982, 2982, 2956, 2956, 2956, 2956, 2956, 2956, 2956, 2931, 2931, 2931, 2931, 2931, 2906, 2906, 2906, 2906, 2906, 2906, 2906, 2906, 2906, 2882, 2882, 2882, 2882, 2858, 2858, 2834, 2834, 2834, 2834, 2834, 2834, 2811, 2811, 2811, 2811, 2811, 2811, 2811, 2811, 2811, 2788, 2788, 2788, 2765, 2765, 2765, 2743, 2743, 2743, 2743, 2743, 2743, 2743, 2743, 2721, 2721, 2721, 2721, 2721, 2721, 2721, 2721, 2700, 2700, 2700, 2700, 2700, 2700, 2679, 2679, 2679, 2658, 2658, 2658, 2637, 2637, 2637, 2617, 2597, 2597, 2597, 2578, 2617, 0, 0, 0, 2077, 2077, 2064, 2064, 2064, 2064, 2064, 2064, 2064, 2064, 2064, 2064, 2064, 0, 2539, 2558, 2558, 2558, 2558, 2558, 2558, 2558, 2558, 2558, 2539, 2539, 2539, 2539, 2539, 2539, 2521, 2521, 2521, 2521, 2521, 2521, 2502, 2502, 2502, 2502, 2484, 2484, 2484, 2484, 2484, 2484, 2466, 2466, 2466, 2448, 2448, 2448, 2448, 2448, 2448, 2448, 2448, 2448, 2448, 2448, 2448, 2431, 2431, 2431, 2431, 2414, 2414, 2414, 2397, 2397, 2397, 2380, 2380, 2380, 2364, 2364, 2364, 2364, 2364, 2364, 2364, 2364, 2364, 2364, 2364, 2364, 2364, 2364, 2364, 2364, 2364, 2348, 2348, 2348, 2348, 2348, 2348, 2348, 2348, 2348, 2348, 2348, 2332, 2332, 2332, 2332, 2332, 2332, 2316, 2316, 2316,
       4238, 4238, 4238, 4238, 4238, 4238, 4238, 4291, 4291, 4291, 4291, 4291, 4291, 4291, 4291, 4291, 4291, 4291, 4291, 4291, 4291, 4291, 4291, 4291, 4291, 4291, 4291, 4291, 4346, 4346, 4346, 4346, 4346, 4346, 4346, 4346, 4346, 4346, 4346, 4346, 4346, 4346, 4346, 4346, 4291, 4291, 4291, 4291, 4238, 4238, 4238, 4238, 4238, 4186, 4186, 4186, 4186, 4186, 4186, 4186, 4186, 0, 0, 0, 0, 0, 0, 0, 0, 0, 0, 0, 0, 0, 0, 0, 0, 0, 0, 0, 0, 0, 0, 0, 0, 0, 0, 0, 0, 0, 0, 0, 0, 0, 0, 0, 0, 0, 0, 0, 0, 0, 0, 0, 0, 0, 0, 2155, 2155, 2142, 2155, 2169, 2169, 2169, 2169, 2183, 2197, 2197, 0, 0, 2240, 2240, 2240, 2240, 2255, 2255, 2255, 2255, 0, 0, 0, 1903, 1903, 1903, 1903, 1903, 1903, 1893, 1893, 0, 2155, 2155, 2155, 2155, 2169, 2155, 2155, 2155, 2155, 2155, 2155, 2155, 2155, 2155, 2142, 0, 0, 2040, 2016, 2016, 2016, 2016, 2004, 2004, 2004, 2004, 2004, 2004, 1992, 1992, 2004, 2004, 2004, 2004, 2004, 2004, 2004, 2004, 2004, 2016, 2004, 1992, 1981, 1981, 1981, 0, 0, 0, 0, 0, 3730, 3730, 3730, 3690, 3730, 3730, 3730, 0, 0, 3730, 3690, 3612, 3612, 3574, 3730, 3730, 3730, 3730, 3730, 3730, 3730, 3730, 3690, 3690, 3690, 3690, 3690, 3650, 3650, 3650, 3612, 3612, 3574, 3574, 3537, 3537, 3537, 3537, 3537, 3537, 3537, 3537, 3537, 3537, 3537, 3537, 3537, 3537, 3501, 3501, 3501, 3465, 3465, 3465, 3465, 3465, 3465, 3465, 3465, 3431, 3431, 3431, 3431, 3431, 3431, 3397, 3397, 3397, 3397, 3397, 3397, 3397, 3397, 3397, 3363, 3363, 3330, 3298, 3298, 0, 3267, 3267, 3267, 0, 0, 0, 0, 0, 0, 0, 0, 0, 0, 0, 1947, 1947, 1947, 1947, 1947, 1947, 1947, 1936, 1936, 1936, 1936, 1936, 1936, 1936, 1936, 1936, 1958, 0, 3176, 3176, 3176, 3147, 3147, 3147, 3147, 3147, 3147, 3118, 3118, 3118, 3118, 3118, 3090, 3090, 3090, 3062, 3062, 3062, 3062, 3062, 3062, 3035, 3035, 3035, 3035, 3035, 3035, 3035, 3035, 3035, 3008, 3008, 3008, 3008, 3008, 2982, 2982, 2982, 2982, 2982, 2982, 2956, 2956, 2956, 2956, 2956, 2956, 2956, 2956, 2931, 2931, 2931, 2931, 2906, 2906, 2906, 2906, 2906, 2906, 2906, 2906, 2906, 2882, 2882, 2882, 2858, 2858, 2858, 2834, 2834, 2834, 2834, 2834, 2834, 2811, 2811, 2811, 2811, 2811, 2811, 2811, 2811, 2811, 2788, 2788, 2788, 2765, 2765, 2765, 2743, 2743, 2743, 2743, 2743, 2743, 2743, 2743, 2721, 2721, 2721, 2721, 2721, 2721, 2721, 2721, 2700, 2700, 2700, 2700, 2700, 2700, 2679, 2679, 2679, 2658, 2658, 2658, 2637, 2637, 2637, 2617, 2597, 2597, 2597, 2578, 0, 0, 0, 0, 2077, 2077, 2064, 2064, 2064, 2064, 2064, 2064, 2064, 2064, 2064, 2064, 2064, 0, 2521, 2558, 2558, 2558, 2558, 2558, 2558, 2558, 2558, 2558, 2539, 2539, 2539, 2539, 2539, 2521, 2521, 2521, 2521, 2521, 2521, 2521, 2502, 2502, 2502, 2484, 2484, 2484, 2484, 2484, 2466, 2466, 2466, 2448, 2448, 2431, 2431, 2431, 2431, 2448, 2448, 2448, 2448, 2448, 2448, 2448, 2448, 2431, 2431, 2431, 2431, 2414, 2414, 2414, 2397, 2397, 2397, 2380, 2380, 2364, 2364, 2364, 2364, 2364, 2364, 2364, 2364, 2364, 2364, 2364, 2364, 2364, 2364, 2364, 2364, 2364, 2364, 2364, 2348, 2348, 2348, 2348, 2348, 2348, 2348, 2348, 2348, 2348, 2332, 2332, 2332, 2332, 2332, 2332, 2332, 2316, 2316,
       4238, 4238, 4238, 4238, 4238, 4238, 4238, 4238, 4238, 4291, 4291, 4291, 4291, 4291, 4291, 4291, 4291, 4291, 4291, 4291, 4291, 4291, 4291, 4291, 4291, 4291, 4291, 4291, 4346, 4346, 4346, 4346, 4346, 4346, 4346, 4346, 4346, 4346, 4346, 4346, 4346, 4346, 4346, 4291, 4291, 4291, 4291, 4291, 4238, 4238, 4238, 4238, 4238, 4238, 4186, 4186, 4186, 4186, 4186, 4186, 4186, 0, 0, 0, 0, 0, 0, 0, 0, 0, 0, 0, 0, 0, 0, 0, 0, 0, 0, 0, 0, 0, 0, 0, 0, 0, 0, 0, 0, 0, 0, 0, 0, 0, 0, 2255, 0, 0, 0, 0, 0, 0, 0, 0, 0, 0, 0, 2142, 2142, 2142, 2155, 2169, 2169, 2169, 2169, 2169, 2183, 2183, 2211, 0, 2240, 2240, 2240, 2240, 2240, 2240, 2240, 2240, 0, 0, 0, 1893, 1893, 1903, 1903, 1903, 1903, 1893, 0, 0, 0, 2155, 2155, 2155, 2169, 2169, 2155, 2155, 2155, 2155, 2155, 2155, 2155, 2155, 2142, 0, 0, 0, 0, 2028, 2016, 2016, 2016, 2016, 2004, 2004, 2004, 2004, 1992, 1992, 2004, 2004, 2004, 2004, 2004, 2004, 2004, 2004, 2016, 2016, 2004, 1992, 1981, 1981, 1981, 0, 0, 0, 0, 0, 0, 0, 3730, 3690, 3690, 3690, 0, 0, 0, 3612, 0, 0, 0, 0, 3363, 3431, 3397, 3465, 3501, 3501, 3501, 3650, 3730, 3690, 3690, 3690, 3690, 3650, 3650, 3650, 3612, 3612, 3574, 3537, 3537, 3537, 3537, 3537, 3537, 3537, 3537, 3537, 3537, 3537, 3537, 3537, 3537, 3537, 3501, 3501, 3501, 3465, 3465, 3465, 3465, 3465, 3465, 3465, 3465, 3431, 3431, 3431, 3431, 3431, 3431, 3397, 3397, 3397, 3397, 3397, 3397, 3397, 3397, 3363, 3363, 3363, 3330, 3298, 3298, 3267, 3267, 3267, 3267, 0, 0, 3236, 0, 0, 0, 0, 0, 0, 0, 1947, 1947, 1947, 1947, 1947, 1947, 1947, 1947, 1947, 1936, 1936, 1936, 1936, 1936, 1936, 1925, 1925, 1947, 0, 3176, 3176, 3176, 3147, 3147, 3147, 3147, 3147, 3147, 3118, 3118, 3118, 3118, 3118, 3090, 3090, 3090, 3062, 3062, 3062, 3062, 3062, 3035, 3035, 3035, 3035, 3035, 3035, 3035, 3035, 3008, 3008, 3008, 3008, 3008, 3008, 3008, 2982, 2982, 2982, 2982, 2982, 2982, 2982, 2956, 2956, 2956, 2956, 2956, 2956, 2956, 2931, 2931, 2931, 2931, 2906, 2906, 2906, 2906, 2906, 2906, 2906, 2906, 2906, 2882, 2882, 2882, 2858, 2858, 2858, 2834, 2834, 2834, 2834, 2834, 2834, 2811, 2811, 2811, 2811, 2811, 2811, 2811, 2811, 2811, 2788, 2788, 2788, 2765, 2765, 2765, 2743, 2743, 2743, 2743, 2743, 2743, 2743, 2743, 2743, 2721, 2721, 2721, 2721, 2721, 2721, 2721, 2700, 2700, 2700, 2700, 2679, 2679, 2679, 2679, 2658, 2658, 2658, 2658, 2658, 2637, 2637, 2637, 2617, 2617, 2597, 2597, 0, 0, 0, 0, 2077, 2077, 2064, 2064, 2064, 2064, 2064, 2064, 2064, 2064, 2064, 2064, 2064, 0, 2466, 2558, 2558, 2558, 2558, 2558, 2558, 2558, 2558, 2539, 2539, 2539, 2539, 2539, 2521, 2521, 2521, 2521, 2521, 2521, 2521, 2502, 2502, 2502, 2502, 2484, 2484, 2484, 2484, 2484, 2466, 2466, 2448, 2448, 2448, 2448, 2431, 2431, 2448, 2448, 2448, 2448, 2448, 2448, 2448, 2448, 2448, 2448, 2431, 2431, 2431, 2414, 2414, 2414, 2397, 2397, 2380, 2380, 2380, 2364, 2364, 2364, 2364, 2364, 2364, 2364, 2364, 2364, 2364, 2364, 2364, 2364, 2364, 2364, 2364, 2364, 2364, 2364, 2348, 2348, 2348, 2348, 2348, 2348, 2348, 2348, 2348, 2332, 2332, 2332, 2332, 2332, 2332, 2332, 2332, 2316, 2316,
       4238, 4238, 4238, 4238, 4238, 4238, 4238, 4238, 4238, 4291, 4291, 4291, 4291, 4291, 4291, 4291, 4291, 4291, 4291, 4291, 4291, 4291, 4291, 4291, 4346, 4291, 4346, 4346, 4346, 4346, 4346, 4346, 4346, 4346, 4346, 4346, 4346, 4346, 4346, 4346, 4346, 4346, 4346, 4291, 4291, 4291, 4291, 4291, 4238, 4238, 4238, 4238, 4238, 4238, 4186, 4186, 4186, 4186, 4186, 4186, 4186, 0, 0, 0, 0, 0, 0, 0, 0, 0, 0, 0, 0, 0, 0, 0, 0, 0, 0, 0, 0, 0, 0, 0, 0, 0, 0, 0, 0, 0, 0, 0, 0, 2240, 2240, 2240, 2240, 2225, 2225, 2225, 2211, 0, 0, 2183, 2169, 2169, 2155, 2155, 2155, 2155, 2155, 2169, 2169, 2169, 2169, 2169, 2183, 2183, 2197, 2211, 2225, 2225, 2240, 2240, 2240, 2240, 2240, 0, 0, 0, 0, 1893, 1893, 1893, 1893, 1903, 1903, 1893, 0, 0, 0, 0, 2155, 2155, 2169, 2169, 2155, 2155, 2155, 2155, 2155, 2155, 2155, 2155, 2142, 2129, 0, 0, 0, 2028, 2016, 2016, 2016, 2016, 2016, 2004, 2004, 2004, 2004, 2004, 2004, 2004, 2004, 2004, 2004, 2004, 2004, 2004, 2004, 2004, 1992, 1992, 1981, 1981, 1981, 1992, 1992, 0, 0, 0, 0, 0, 0, 0, 0, 0, 0, 0, 2155, 2102, 2102, 2102, 2102, 2102, 2102, 2102, 2102, 0, 0, 0, 0, 0, 0, 0, 3612, 3690, 3537, 3465, 3574, 3650, 3612, 3574, 3574, 3537, 3537, 3501, 3501, 3501, 3501, 3537, 3537, 3537, 3537, 3537, 3537, 3537, 3537, 3537, 3501, 3501, 3501, 3465, 3465, 3465, 3465, 3465, 3465, 3465, 3465, 3431, 3431, 3431, 3431, 3431, 3431, 3397, 3397, 3397, 3397, 3397, 3397, 3397, 3397, 3363, 3363, 3330, 3330, 3298, 3298, 3267, 3267, 3267, 3267, 0, 3267, 3267, 0, 0, 0, 0, 0, 0, 0, 0, 1958, 1947, 1947, 1947, 1947, 1947, 1947, 1947, 1936, 1936, 1936, 1936, 1936, 1936, 1925, 1936, 0, 3147, 3176, 3176, 3176, 3147, 3147, 3147, 3147, 3147, 3147, 3118, 3118, 3118, 3118, 3118, 3118, 3090, 3090, 3090, 3062, 3062, 3062, 3035, 3035, 3035, 3035, 3035, 3035, 3035, 3035, 3035, 3008, 3008, 3008, 3008, 3008, 3008, 2982, 2982, 2982, 2982, 2982, 2982, 2982, 2982, 2956, 2956, 2956, 2956, 2956, 2956, 2956, 2931, 2931, 2931, 2931, 2906, 2906, 2906, 2906, 2906, 2906, 2906, 2906, 2906, 2882, 2882, 2882, 2858, 2858, 2858, 2834, 2834, 2834, 2834, 2834, 2834, 2811, 2811, 2811, 2811, 2811, 2811, 2811, 2811, 2788, 2788, 2788, 2788, 2765, 2765, 2765, 2743, 2743, 2743, 2743, 2743, 2743, 2743, 2743, 2743, 2721, 2721, 2721, 2721, 2721, 2721, 2721, 2700, 2700, 2700, 2700, 2679, 2679, 2679, 2679, 2658, 2658, 2658, 2658, 2658, 2637, 2637, 2637, 2617, 2617, 2617, 2597, 0, 0, 0, 0, 2077, 2077, 2077, 2064, 2064, 2064, 2064, 2064, 2064, 2064, 2064, 2064, 2064, 2129, 2431, 2558, 2558, 2558, 2558, 2558, 2558, 2558, 2558, 2539, 2539, 2539, 2539, 2539, 2539, 2539, 2521, 2521, 2521, 2521, 2521, 2502, 2502, 2502, 2484, 2484, 2484, 2484, 2484, 2484, 2466, 2466, 2466, 2448, 2448, 2448, 2448, 2431, 2448, 2448, 2448, 2448, 2448, 2448, 2448, 2448, 2431, 2431, 2431, 2431, 2414, 2414, 2414, 2414, 2414, 2397, 2397, 2380, 2380, 2364, 2364, 2364, 2364, 2364, 2364, 2364, 2364, 2364, 2364, 2364, 2364, 2364, 2364, 2364, 2364, 2364, 2364, 2364, 2348, 2348, 2348, 2348, 2348, 2348, 2348, 2348, 2348, 2332, 2332, 2332, 2332, 2332, 2332, 2316, 2316, 2316, 2316 ]
