%YAML 1.0
---
depth: !!opencv-matrix
   rows: 29
   cols: 545
   dt: w
   data: [ 4459, 4459, 4459, 4459, 4459, 4459, 4459, 4459, 4459, 4459, 4459, 4459, 4459, 4459, 4459, 4459, 4459, 4459, 4459, 4402, 4459, 4459, 4459, 4459, 4402, 4402, 4402, 4402, 4402, 4402, 4402, 4402, 4402, 4402, 4402, 4402, 4346, 4346, 4346, 4346, 4346, 4346, 4346, 4346, 4346, 4346, 4346, 4346, 4346, 4346, 4402, 4402, 4402, 4402, 4402, 4402, 4402, 4402, 4402, 4402, 4402, 4402, 4402, 4402, 4402, 4402, 4402, 4402, 4402, 4402, 4402, 4402, 4402, 4402, 4402, 4402, 4402, 4402, 4402, 4402, 4402, 4402, 4402, 4402, 4402, 4402, 4402, 4346, 4402, 4402, 4346, 4346, 4346, 4346, 4402, 4402, 4402, 4346, 4346, 4346, 4346, 4402, 4346, 4402, 4402, 4402, 4402, 4402, 4402, 4402, 4402, 4402, 4346, 4346, 4346, 4346, 4346, 4291, 4291, 4291, 4291, 4238, 4238, 4238, 4238, 4238, 4238, 4186, 4186, 4186, 4186, 4186, 4186, 4186, 4186, 4186, 4136, 4136, 4136, 4086, 4086, 4086, 4086, 4086, 4038, 4038, 4038, 4038, 4038, 3991, 3991, 3991, 3991, 3991, 3991, 3991, 3991, 3945, 3945, 3945, 3945, 3945, 3900, 3900, 3900, 3900, 3900, 3856, 3856, 3856, 3856, 3856, 3856, 3856, 3856, 3813, 3813, 3813, 3813, 3813, 3771, 3771, 3771, 3771, 3730, 3730, 3730, 3730, 3730, 3690, 3690, 3690, 3690, 3690, 3690, 3690, 3690, 3690, 3650, 3650, 3650, 3650, 3612, 3612, 3612, 3612, 3612, 3612, 3612, 3612, 3612, 3612, 3574, 3574, 3574, 3537, 3537, 3537, 3537, 3537, 3537, 3537, 3501, 3501, 3501, 3501, 3501, 3501, 3501, 3501, 3501, 3465, 3465, 3465, 3431, 3431, 3397, 3397, 3397, 3397, 3397, 3397, 3397, 3397, 3397, 3397, 3363, 3363, 3363, 3363, 3363, 3363, 3330, 3330, 3330, 3330, 3330, 3298, 3298, 3298, 3267, 3267, 3267, 3267, 3236, 3236, 3236, 3236, 3236, 3236, 3236, 3236, 3236, 3236, 3206, 3206, 3206, 3206, 3206, 3176, 3176, 3176, 3147, 3147, 3147, 3147, 3147, 3147, 3147, 3118, 3118, 3118, 3118, 3118, 3090, 3090, 3090, 3090, 3090, 3090, 3090, 3090, 3090, 3062, 3062, 3062, 3062, 3062, 3062, 3035, 3035, 3035, 3035, 3035, 3035, 3008, 3008, 3008, 3008, 3008, 3008, 3008, 2982, 2982, 2982, 2956, 2956, 2956, 2931, 2931, 2931, 2931, 2931, 2931, 2906, 2906, 2906, 2906, 2906, 2906, 2906, 2882, 2882, 2882, 2882, 2882, 2882, 2882, 2882, 2882, 2858, 2858, 2858, 2834, 2834, 2834, 2834, 2811, 2811, 2811, 2811, 2811, 2811, 2788, 2788, 2788, 2765, 2765, 2765, 2765, 2765, 2765, 2765, 2743, 2743, 2743, 2743, 2743, 2743, 2721, 2721, 2721, 2721, 2721, 2721, 2721, 2700, 2700, 2700, 2700, 2679, 2679, 2679, 2679, 2658, 2658, 2658, 2658, 2658, 2637, 2637, 2637, 2637, 2637, 2637, 2637, 2637, 2637, 2637, 2637, 2637, 2617, 2617, 2617, 2617, 2617, 2597, 2597, 2597, 2597, 2597, 2578, 2578, 2578, 2578, 2578, 2558, 2558, 2558, 2558, 2558, 2558, 2539, 2539, 2539, 2539, 2539, 2521, 2521, 2521, 2521, 2521, 2502, 2502, 2502, 2502, 2502, 2502, 2502, 2502, 2484, 2484, 2484, 2484, 2484, 2484, 2484, 2484, 2484, 2484, 2484, 2466, 2466, 2466, 2466, 2448, 2448, 2448, 2448, 2448, 2448, 2431, 2431, 2431, 2431, 2431, 2431, 2431, 2431, 2414, 2414, 2414, 2414, 2414, 2397, 2397, 2397, 2397, 2397, 2397, 2397, 2380, 2380, 2380, 2380, 2380, 2380, 2380, 2364, 2364, 2364, 2364, 2348, 2348, 2348, 2348, 2348, 2348, 2348, 2332, 2332, 2332, 2332, 2332, 2316, 2316, 2316, 2300, 2300, 2300, 2300, 2285, 2285, 2285, 2285, 2285, 2285, 2285, 2270, 2270, 2270, 2270, 2270, 2270, 2255, 2255, 2240, 2240, 2240, 2240, 2240, 2225, 2225, 2225, 2225,
       4459, 4459, 4459, 4459, 4459, 4459, 4459, 4459, 4459, 4459, 4459, 4459, 4459, 4459, 4459, 4459, 4459, 4459, 4459, 4459, 4459, 4459, 4459, 4459, 4402, 4402, 4459, 4459, 4402, 4402, 4402, 4402, 4402, 4402, 4402, 4402, 4402, 4402, 4402, 4402, 4402, 4402, 4346, 4346, 4346, 4346, 4346, 4346, 4402, 4402, 4402, 4402, 4402, 4402, 4402, 4402, 4402, 4402, 4402, 4402, 4402, 4402, 4402, 4402, 4402, 4402, 4402, 4402, 4402, 4402, 4402, 4402, 4402, 4402, 4402, 4402, 4402, 4402, 4402, 4402, 4402, 4402, 4402, 4402, 4402, 4402, 4402, 4402, 4402, 4402, 4402, 4402, 4402, 4402, 4402, 4402, 4402, 4402, 4402, 4402, 4402, 4402, 4402, 4402, 4402, 4402, 4402, 4402, 4402, 4402, 4402, 4402, 4346, 4346, 4346, 4346, 4346, 4291, 4291, 4291, 4291, 4238, 4238, 4238, 4238, 4238, 4238, 4238, 4186, 4186, 4186, 4186, 4186, 4186, 4186, 4186, 4186, 4136, 4136, 4086, 4086, 4086, 4086, 4038, 4038, 4038, 4038, 4038, 4038, 3991, 3991, 3991, 3991, 3991, 3991, 3991, 3991, 3945, 3945, 3945, 3945, 3945, 3900, 3900, 3900, 3900, 3900, 3856, 3856, 3856, 3856, 3856, 3856, 3856, 3856, 3813, 3813, 3813, 3813, 3813, 3771, 3771, 3771, 3771, 3730, 3690, 3690, 3730, 3690, 3690, 3690, 3690, 3690, 3690, 3690, 3690, 3690, 3690, 3650, 3650, 3650, 3650, 3650, 3650, 3612, 3612, 3612, 3612, 3612, 3612, 3612, 3612, 3612, 3574, 3574, 3537, 3537, 3537, 3537, 3537, 3537, 3501, 3501, 3501, 3501, 3501, 3501, 3501, 3501, 3501, 3465, 3465, 3465, 3465, 3431, 3431, 3397, 3397, 3397, 3397, 3397, 3397, 3397, 3397, 3397, 3397, 3363, 3363, 3363, 3363, 3363, 3363, 3330, 3330, 3330, 3330, 3330, 3298, 3298, 3298, 3267, 3267, 3267, 3267, 3267, 3236, 3236, 3236, 3236, 3236, 3236, 3236, 3236, 3236, 3236, 3206, 3206, 3206, 3206, 3176, 3176, 3176, 3176, 3147, 3147, 3147, 3147, 3147, 3147, 3118, 3118, 3118, 3118, 3118, 3090, 3090, 3090, 3090, 3090, 3090, 3090, 3090, 3090, 3062, 3062, 3062, 3062, 3062, 3062, 3035, 3035, 3035, 3035, 3035, 3035, 3008, 3008, 3008, 3008, 3008, 3008, 3008, 2982, 2982, 2982, 2956, 2956, 2956, 2931, 2931, 2931, 2931, 2931, 2931, 2906, 2906, 2906, 2906, 2906, 2906, 2906, 2882, 2882, 2882, 2882, 2882, 2882, 2882, 2882, 2882, 2858, 2858, 2834, 2834, 2834, 2834, 2834, 2811, 2811, 2811, 2811, 2811, 2811, 2788, 2788, 2788, 2788, 2765, 2788, 2765, 2765, 2765, 2765, 2743, 2743, 2743, 2743, 2743, 2743, 2743, 2721, 2721, 2721, 2721, 2721, 2700, 2700, 2700, 2700, 2679, 2679, 2679, 2679, 2658, 2658, 2658, 2658, 2658, 2658, 2658, 2637, 2637, 2637, 2637, 2637, 2637, 2637, 2637, 2637, 2637, 2617, 2617, 2617, 2617, 2617, 2617, 2597, 2597, 2597, 2597, 2597, 2578, 2578, 2578, 2578, 2578, 2558, 2558, 2558, 2558, 2558, 2558, 2539, 2539, 2539, 2539, 2539, 2521, 2521, 2521, 2521, 2521, 2502, 2502, 2502, 2502, 2502, 2502, 2502, 2502, 2484, 2484, 2484, 2484, 2484, 2484, 2484, 2484, 2484, 2484, 2484, 2466, 2466, 2466, 2448, 2448, 2448, 2448, 2448, 2448, 2448, 2431, 2431, 2431, 2431, 2431, 2431, 2431, 2431, 2414, 2414, 2414, 2414, 2397, 2397, 2380, 2380, 2380, 2380, 2380, 2380, 2380, 2380, 2380, 2380, 2380, 2380, 2380, 2364, 2364, 2364, 2364, 2348, 2348, 2348, 2348, 2348, 2348, 2348, 2332, 2332, 2332, 2332, 2332, 2316, 2316, 2316, 2300, 2300, 2300, 2300, 2285, 2285, 2285, 2285, 2285, 2285, 2285, 2285, 2270, 2270, 2270, 2270, 2270, 2255, 2255, 2240, 2240, 2240, 2240, 2240, 2225, 2225, 2225, 2225,
       4459, 4459, 4459, 4459, 4459, 4459, 4459, 4459, 4459, 4459, 4459, 4459, 4459, 4459, 4459, 4459, 4459, 4459, 4459, 4459, 4459, 4459, 4459, 4459, 4459, 4459, 4459, 4459, 4459, 4402, 4402, 4402, 4459, 4459, 4459, 4459, 4402, 4402, 4402, 4402, 4402, 4402, 4402, 4402, 4402, 4402, 4402, 4402, 4402, 4402, 4402, 4402, 4402, 4402, 4402, 4402, 4402, 4402, 4402, 4402, 4402, 4402, 4402, 4402, 4402, 4402, 4402, 4402, 4402, 4402, 4402, 4402, 4402, 4402, 4402, 4402, 4459, 4402, 4402, 4402, 4402, 4402, 4402, 4402, 4402, 4402, 4402, 4402, 4402, 4402, 4402, 4402, 4402, 4402, 4402, 4402, 4402, 4402, 4402, 4402, 4402, 4402, 4402, 4402, 4402, 4402, 4402, 4402, 4402, 4402, 4402, 4402, 4402, 4346, 4346, 4346, 4346, 4346, 4291, 4291, 4291, 4238, 4238, 4238, 4238, 4238, 4238, 4238, 4186, 4186, 4186, 4186, 4186, 4186, 4186, 4186, 4186, 4136, 4136, 4086, 4086, 4086, 4086, 4038, 4038, 4038, 4038, 4038, 4038, 3991, 3991, 3991, 3991, 3991, 3991, 3991, 3991, 3945, 3945, 3945, 3945, 3945, 3945, 3900, 3900, 3900, 3900, 3856, 3856, 3856, 3856, 3856, 3856, 3856, 3856, 3813, 3813, 3813, 3813, 3813, 3771, 3771, 3771, 3771, 3730, 3690, 3690, 3690, 3690, 3690, 3690, 3690, 3690, 3690, 3690, 3690, 3690, 3650, 3650, 3650, 3650, 3650, 3650, 3650, 3650, 3650, 3612, 3612, 3612, 3612, 3612, 3612, 3574, 3574, 3574, 3537, 3537, 3537, 3537, 3537, 3537, 3501, 3501, 3501, 3501, 3501, 3501, 3501, 3501, 3501, 3465, 3465, 3465, 3431, 3431, 3431, 3397, 3397, 3397, 3397, 3397, 3397, 3397, 3397, 3397, 3363, 3363, 3363, 3363, 3363, 3363, 3363, 3330, 3330, 3330, 3330, 3298, 3298, 3298, 3298, 3267, 3267, 3267, 3267, 3267, 3236, 3236, 3236, 3236, 3236, 3236, 3236, 3236, 3236, 3236, 3206, 3206, 3206, 3206, 3176, 3176, 3176, 3176, 3147, 3147, 3147, 3147, 3147, 3147, 3118, 3118, 3118, 3118, 3118, 3118, 3090, 3090, 3090, 3090, 3090, 3090, 3090, 3090, 3062, 3062, 3062, 3062, 3062, 3062, 3035, 3035, 3035, 3035, 3035, 3035, 3008, 3008, 3008, 3008, 3008, 3008, 3008, 2982, 2982, 2982, 2956, 2956, 2956, 2931, 2931, 2931, 2931, 2931, 2931, 2931, 2906, 2906, 2906, 2906, 2906, 2906, 2882, 2882, 2882, 2882, 2882, 2882, 2882, 2882, 2882, 2858, 2858, 2858, 2834, 2834, 2834, 2834, 2811, 2811, 2811, 2811, 2811, 2811, 2811, 2788, 2788, 2788, 2788, 2788, 2788, 2765, 2765, 2765, 2765, 2743, 2743, 2743, 2743, 2743, 2743, 2721, 2721, 2721, 2721, 2721, 2700, 2700, 2700, 2700, 2700, 2679, 2679, 2679, 2679, 2658, 2658, 2658, 2658, 2658, 2658, 2637, 2637, 2637, 2637, 2637, 2637, 2637, 2637, 2637, 2637, 2617, 2617, 2617, 2617, 2617, 2597, 2597, 2578, 2578, 2578, 2597, 2578, 2578, 2578, 2578, 2558, 2558, 2558, 2558, 2558, 2558, 2558, 2539, 2539, 2539, 2539, 2539, 2539, 2521, 2521, 2521, 2521, 2521, 2502, 2502, 2502, 2502, 2502, 2502, 2502, 2484, 2484, 2484, 2484, 2484, 2484, 2484, 2484, 2484, 2484, 2484, 2466, 2466, 2466, 2448, 2448, 2431, 2431, 2431, 2431, 2431, 2431, 2431, 2431, 2431, 2431, 2431, 2431, 2431, 2414, 2414, 2414, 2397, 2397, 2397, 2380, 2380, 2380, 2380, 2380, 2380, 2364, 2380, 2380, 2380, 2380, 2380, 2380, 2364, 2364, 2364, 2364, 2348, 2348, 2348, 2348, 2348, 2348, 2348, 2332, 2332, 2332, 2332, 2332, 2316, 2316, 2316, 2300, 2300, 2300, 2300, 2285, 2285, 2285, 2285, 2285, 2285, 2285, 2285, 2270, 2270, 2270, 2270, 2270, 2255, 2255, 2240, 2240, 2240, 2240, 2225, 2225, 2225, 2225, 2225,
       4459, 4459, 4459, 4459, 4459, 4459, 4459, 4459, 4459, 4459, 4459, 4459, 4459, 4518, 4518, 4459, 4459, 4459, 4459, 4459, 4459, 4459, 4459, 4459, 4459, 4459, 4459, 4459, 4459, 4459, 4459, 4459, 4459, 4459, 4459, 4459, 4459, 4459, 4402, 4402, 4402, 4402, 4402, 4402, 4402, 4402, 4402, 4402, 4402, 4402, 4402, 4402, 4402, 4402, 4402, 4402, 4402, 4402, 4402, 4402, 4402, 4402, 4402, 4459, 4459, 4459, 4459, 4459, 4459, 4459, 4459, 4459, 4402, 4402, 4402, 4459, 4459, 4459, 4459, 4459, 4459, 4459, 4459, 4459, 4459, 4459, 4459, 4459, 4459, 4459, 4459, 4459, 4459, 4459, 4459, 4459, 4459, 4459, 4459, 4402, 4402, 4402, 4402, 4402, 4402, 4402, 4402, 4402, 4402, 4402, 4402, 4402, 4402, 4346, 4346, 4346, 4346, 4291, 4291, 4291, 4291, 4238, 4238, 4238, 4238, 4238, 4238, 4238, 4238, 4186, 4186, 4186, 4186, 4186, 4186, 4186, 4186, 4136, 4136, 4086, 4086, 4086, 4086, 4038, 4038, 4038, 4038, 4038, 4038, 3991, 3991, 3991, 3991, 3991, 3991, 3991, 3991, 3945, 3945, 3945, 3945, 3945, 3945, 3900, 3900, 3900, 3900, 3900, 3856, 3856, 3856, 3856, 3856, 3856, 3856, 3856, 3813, 3813, 3813, 3813, 3771, 3771, 3771, 3771, 3730, 3690, 3690, 3690, 3690, 3690, 3690, 3690, 3690, 3690, 3690, 3690, 3690, 3650, 3650, 3650, 3650, 3650, 3650, 3650, 3650, 3650, 3612, 3612, 3612, 3612, 3612, 3574, 3574, 3574, 3574, 3537, 3537, 3537, 3537, 3537, 3537, 3501, 3501, 3501, 3501, 3501, 3501, 3501, 3501, 3465, 3465, 3465, 3465, 3465, 3431, 3431, 3431, 3397, 3397, 3397, 3397, 3397, 3397, 3397, 3397, 3363, 3363, 3363, 3363, 3363, 3363, 3363, 3330, 3330, 3330, 3330, 3298, 3298, 3298, 3298, 3267, 3267, 3267, 3267, 3267, 3236, 3236, 3236, 3236, 3236, 3236, 3236, 3236, 3236, 3236, 3206, 3206, 3206, 3206, 3176, 3176, 3176, 3147, 3147, 3147, 3147, 3147, 3147, 3147, 3118, 3118, 3118, 3118, 3118, 3118, 3118, 3090, 3090, 3090, 3090, 3090, 3090, 3090, 3062, 3062, 3062, 3062, 3062, 3062, 3035, 3035, 3035, 3035, 3035, 3008, 3008, 3008, 3008, 3008, 3008, 3008, 3008, 2982, 2982, 2982, 2956, 2956, 2956, 2931, 2931, 2931, 2931, 2931, 2931, 2931, 2906, 2906, 2906, 2906, 2906, 2906, 2882, 2882, 2882, 2882, 2882, 2882, 2882, 2882, 2882, 2858, 2858, 2858, 2834, 2834, 2834, 2834, 2834, 2811, 2811, 2811, 2811, 2811, 2811, 2788, 2788, 2788, 2788, 2788, 2788, 2765, 2765, 2765, 2765, 2765, 2765, 2743, 2743, 2743, 2743, 2721, 2721, 2721, 2721, 2721, 2721, 2700, 2700, 2700, 2700, 2679, 2679, 2679, 2679, 2658, 2658, 2658, 2658, 2658, 2637, 2637, 2637, 2637, 2637, 2637, 2637, 2637, 2637, 2637, 2637, 2617, 2617, 2617, 2617, 2617, 2617, 2597, 2578, 2578, 2578, 2578, 2578, 2578, 2578, 2578, 2558, 2558, 2558, 2558, 2558, 2558, 2558, 2539, 2539, 2539, 2539, 2539, 2539, 2521, 2521, 2521, 2521, 2521, 2502, 2502, 2502, 2502, 2502, 2502, 2502, 2484, 2484, 2484, 2484, 2484, 2484, 2484, 2484, 2484, 2484, 2484, 2484, 2466, 2448, 2448, 2448, 2431, 2448, 2431, 2431, 2431, 2431, 2431, 2431, 2431, 2431, 2431, 2431, 2431, 2414, 2414, 2414, 2397, 2397, 2397, 2380, 2380, 2380, 2380, 2380, 2380, 2364, 2364, 2364, 2364, 2380, 2380, 2380, 2364, 2364, 2364, 2364, 2348, 2348, 2348, 2348, 2348, 2348, 2348, 2332, 2332, 2332, 2332, 2316, 2316, 2316, 2300, 2300, 2300, 2300, 2300, 2285, 2285, 2285, 2285, 2285, 2285, 2285, 2285, 2270, 2270, 2270, 2270, 2255, 2255, 2240, 2240, 2240, 2240, 2240, 2240, 2225, 2225, 2225, 2225,
       4459, 4459, 4402, 4402, 4402, 4459, 4459, 4459, 4459, 4459, 4459, 4459, 4518, 4518, 4518, 4518, 4459, 4518, 4459, 4518, 4459, 4459, 4459, 4459, 4459, 4459, 4459, 4459, 4459, 4459, 4459, 4459, 4459, 4459, 4459, 4459, 4459, 4459, 4459, 4459, 4459, 4402, 4402, 4402, 4402, 4402, 4402, 4402, 4402, 4402, 4402, 4402, 4402, 4459, 4402, 4402, 4402, 4402, 4402, 4402, 4402, 4402, 4402, 4459, 4459, 4459, 4459, 4459, 4459, 4459, 4459, 4459, 4459, 4459, 4459, 4459, 4459, 4459, 4459, 4459, 4459, 4459, 4459, 4459, 4459, 4459, 4459, 4459, 4459, 4459, 4459, 4459, 4459, 4459, 4459, 4459, 4459, 4459, 4459, 4459, 4459, 4402, 4402, 4402, 4402, 4402, 4402, 4402, 4402, 4402, 4402, 4346, 4346, 4346, 4346, 4346, 4346, 4291, 4291, 4291, 4291, 4238, 4238, 4238, 4238, 4238, 4238, 4238, 4238, 4186, 4186, 4186, 4186, 4186, 4186, 4186, 4186, 4136, 4136, 4086, 4086, 4086, 4086, 4086, 4038, 4038, 4038, 4038, 4038, 3991, 3991, 3991, 3991, 3991, 3991, 3991, 3991, 3945, 3945, 3945, 3945, 3945, 3945, 3900, 3900, 3900, 3900, 3900, 3856, 3856, 3856, 3856, 3856, 3856, 3856, 3813, 3813, 3813, 3813, 3813, 3771, 3771, 3771, 3771, 3730, 3730, 3730, 3730, 3690, 3690, 3690, 3690, 3690, 3690, 3690, 3690, 3690, 3690, 3650, 3650, 3650, 3650, 3650, 3612, 3650, 3650, 3612, 3612, 3612, 3612, 3574, 3574, 3574, 3574, 3537, 3537, 3537, 3537, 3537, 3537, 3501, 3501, 3501, 3501, 3501, 3501, 3501, 3501, 3501, 3465, 3465, 3465, 3465, 3465, 3431, 3431, 3431, 3397, 3397, 3397, 3397, 3397, 3397, 3397, 3397, 3363, 3363, 3363, 3363, 3363, 3363, 3363, 3330, 3330, 3330, 3330, 3298, 3298, 3298, 3298, 3267, 3267, 3267, 3267, 3267, 3236, 3236, 3236, 3236, 3236, 3236, 3236, 3236, 3236, 3236, 3206, 3206, 3206, 3206, 3206, 3176, 3176, 3147, 3147, 3147, 3147, 3147, 3147, 3118, 3118, 3118, 3118, 3118, 3118, 3118, 3118, 3090, 3090, 3090, 3090, 3090, 3090, 3090, 3090, 3090, 3062, 3062, 3062, 3062, 3035, 3035, 3035, 3035, 3008, 3008, 3008, 3008, 3008, 3008, 3008, 3008, 2982, 2982, 2982, 2982, 2956, 2956, 2956, 2931, 2931, 2931, 2931, 2931, 2931, 2931, 2906, 2906, 2906, 2906, 2906, 2906, 2882, 2882, 2882, 2882, 2882, 2882, 2882, 2882, 2882, 2858, 2858, 2834, 2834, 2834, 2834, 2834, 2811, 2811, 2811, 2811, 2811, 2811, 2811, 2788, 2788, 2788, 2788, 2788, 2788, 2765, 2765, 2765, 2765, 2765, 2765, 2743, 2743, 2743, 2743, 2721, 2721, 2721, 2721, 2721, 2721, 2700, 2700, 2700, 2700, 2700, 2679, 2679, 2679, 2658, 2658, 2658, 2658, 2658, 2637, 2637, 2637, 2637, 2637, 2637, 2637, 2637, 2637, 2617, 2617, 2617, 2617, 2617, 2617, 2617, 2617, 2597, 2578, 2578, 2578, 2578, 2578, 2578, 2558, 2578, 2558, 2558, 2558, 2558, 2558, 2558, 2558, 2539, 2539, 2539, 2539, 2539, 2539, 2539, 2539, 2521, 2521, 2521, 2521, 2502, 2502, 2502, 2502, 2502, 2502, 2502, 2502, 2484, 2484, 2484, 2484, 2484, 2484, 2484, 2484, 2484, 2466, 2466, 2448, 2448, 2448, 2448, 2448, 2448, 2448, 2448, 2431, 2431, 2431, 2431, 2431, 2431, 2431, 2414, 2414, 2414, 2414, 2397, 2397, 2380, 2380, 2380, 2380, 2380, 2380, 2380, 2380, 2380, 2380, 2380, 2380, 2380, 2380, 2364, 2364, 2364, 2364, 2348, 2348, 2348, 2348, 2348, 2348, 2348, 2332, 2332, 2332, 2316, 2316, 2316, 2316, 2300, 2300, 2300, 2300, 2300, 2300, 2300, 2285, 2285, 2285, 2285, 2285, 2285, 2270, 2270, 2270, 2270, 2255, 2255, 2255, 2255, 2240, 2240, 2240, 2240, 2225, 2225, 2225, 2225,
       4459, 4459, 4459, 4459, 4459, 4459, 4459, 4459, 4459, 4459, 4518, 4518, 4518, 4518, 4518, 4518, 4518, 4518, 4518, 4518, 4518, 4459, 4459, 4518, 4459, 4518, 4518, 4518, 4518, 4459, 4459, 4459, 4459, 4459, 4459, 4459, 4459, 4459, 4459, 4459, 4459, 4459, 4402, 4402, 4402, 4402, 4402, 4402, 4459, 4459, 4459, 4459, 4459, 4459, 4459, 4459, 4459, 4459, 4459, 4459, 4459, 4459, 4459, 4459, 4459, 4459, 4459, 4459, 4459, 4459, 4459, 4459, 4459, 4459, 4459, 4459, 4459, 4459, 4459, 4459, 4459, 4459, 4459, 4459, 4459, 4459, 4459, 4459, 4459, 4518, 4459, 4459, 4459, 4459, 4459, 4459, 4459, 4459, 4459, 4459, 4459, 4402, 4402, 4402, 4402, 4402, 4402, 4402, 4402, 4402, 4402, 4346, 4346, 4346, 4346, 4346, 4346, 4291, 4291, 4291, 4291, 4238, 4238, 4238, 4238, 4238, 4186, 4238, 4238, 4186, 4186, 4186, 4186, 4186, 4186, 4186, 4186, 4136, 4136, 4086, 4086, 4086, 4086, 4038, 4038, 4038, 4038, 4038, 4038, 4038, 3991, 3991, 3991, 3991, 3991, 3991, 3991, 3945, 3945, 3945, 3945, 3945, 3945, 3900, 3900, 3900, 3900, 3900, 3856, 3856, 3856, 3856, 3856, 3856, 3856, 3813, 3813, 3813, 3813, 3813, 3771, 3771, 3771, 3771, 3771, 3730, 3730, 3730, 3690, 3690, 3690, 3690, 3690, 3690, 3690, 3690, 3690, 3690, 3650, 3650, 3650, 3650, 3650, 3612, 3650, 3650, 3612, 3612, 3612, 3574, 3574, 3574, 3574, 3574, 3537, 3537, 3537, 3537, 3537, 3537, 3501, 3501, 3501, 3501, 3501, 3501, 3501, 3501, 3501, 3465, 3465, 3465, 3465, 3465, 3431, 3431, 3431, 3397, 3397, 3397, 3397, 3397, 3397, 3397, 3397, 3363, 3363, 3363, 3363, 3363, 3363, 3363, 3330, 3330, 3330, 3330, 3298, 3298, 3298, 3298, 3267, 3267, 3267, 3267, 3267, 3267, 3267, 3236, 3236, 3236, 3236, 3236, 3236, 3236, 3236, 3206, 3206, 3206, 3206, 3206, 3176, 3176, 3147, 3147, 3147, 3147, 3147, 3147, 3118, 3118, 3118, 3118, 3118, 3118, 3118, 3118, 3118, 3090, 3090, 3090, 3090, 3090, 3090, 3090, 3090, 3062, 3062, 3062, 3062, 3035, 3035, 3035, 3035, 3008, 3008, 3008, 3008, 3008, 3008, 3008, 2982, 2982, 2982, 2982, 2982, 2956, 2956, 2956, 2931, 2931, 2931, 2931, 2931, 2931, 2931, 2931, 2906, 2906, 2906, 2906, 2906, 2882, 2882, 2882, 2882, 2882, 2882, 2858, 2858, 2858, 2858, 2834, 2834, 2834, 2834, 2834, 2834, 2811, 2811, 2811, 2811, 2811, 2811, 2811, 2788, 2788, 2788, 2788, 2788, 2788, 2765, 2765, 2765, 2765, 2743, 2743, 2743, 2743, 2743, 2743, 2721, 2721, 2721, 2721, 2721, 2721, 2700, 2700, 2700, 2700, 2700, 2700, 2679, 2679, 2658, 2658, 2658, 2658, 2637, 2637, 2637, 2637, 2637, 2637, 2637, 2637, 2637, 2637, 2637, 2617, 2617, 2617, 2617, 2617, 2617, 2597, 2597, 2578, 2578, 2578, 2578, 2578, 2578, 2558, 2558, 2558, 2558, 2558, 2558, 2558, 2558, 2558, 2539, 2539, 2539, 2539, 2539, 2539, 2539, 2539, 2539, 2539, 2521, 2521, 2521, 2502, 2502, 2502, 2502, 2502, 2502, 2502, 2484, 2484, 2484, 2484, 2484, 2484, 2484, 2484, 2466, 2466, 2466, 2466, 2448, 2448, 2448, 2448, 2448, 2448, 2448, 2431, 2431, 2431, 2431, 2431, 2431, 2431, 2414, 2414, 2414, 2414, 2397, 2397, 2380, 2380, 2380, 2380, 2380, 2380, 2380, 2380, 2380, 2380, 2380, 2380, 2380, 2364, 2364, 2364, 2364, 2364, 2348, 2348, 2348, 2348, 2348, 2348, 2348, 2332, 2332, 2316, 2316, 2316, 2316, 2300, 2300, 2300, 2300, 2300, 2300, 2300, 2300, 2300, 2285, 2285, 2285, 2285, 2285, 2270, 2270, 2270, 2270, 2255, 2255, 2255, 2255, 2240, 2240, 2240, 2240, 2225, 2225, 2225, 2225,
       4459, 4459, 4459, 4459, 4459, 4459, 4459, 4459, 4459, 4518, 4518, 4518, 4518, 4518, 4518, 4518, 4518, 4518, 4518, 4518, 4518, 4518, 4518, 4518, 4518, 4518, 4518, 4518, 4518, 4459, 4518, 4518, 4518, 4459, 4459, 4459, 4459, 4459, 4459, 4459, 4459, 4459, 4459, 4459, 4459, 4459, 4459, 4459, 4459, 4459, 4459, 4459, 4459, 4459, 4459, 4459, 4459, 4459, 4459, 4459, 4459, 4459, 4459, 4459, 4459, 4459, 4459, 4459, 4459, 4459, 4459, 4459, 4459, 4459, 4459, 4459, 4459, 4459, 4459, 4459, 4459, 4459, 4518, 4518, 4518, 4518, 4518, 4518, 4518, 4518, 4518, 4518, 4518, 4518, 4518, 4518, 4518, 4459, 4459, 4459, 4459, 4402, 4402, 4402, 4402, 4402, 4402, 4402, 4402, 4402, 4402, 4402, 4346, 4346, 4346, 4346, 4346, 4291, 4291, 4238, 4238, 4238, 4238, 4238, 4238, 4238, 4186, 4238, 4238, 4186, 4186, 4186, 4186, 4186, 4186, 4186, 4136, 4136, 4136, 4086, 4086, 4086, 4086, 4038, 4038, 4038, 4038, 4038, 4038, 4038, 3991, 3991, 3991, 3991, 3991, 3991, 3991, 3945, 3945, 3945, 3945, 3945, 3945, 3900, 3900, 3900, 3900, 3900, 3900, 3856, 3856, 3856, 3856, 3856, 3856, 3813, 3813, 3813, 3813, 3813, 3771, 3771, 3771, 3771, 3771, 3730, 3730, 3730, 3690, 3690, 3690, 3690, 3690, 3690, 3690, 3690, 3690, 3650, 3650, 3650, 3650, 3650, 3650, 3612, 3612, 3612, 3612, 3612, 3612, 3574, 3574, 3574, 3574, 3574, 3537, 3537, 3537, 3537, 3537, 3537, 3501, 3501, 3501, 3501, 3501, 3501, 3501, 3501, 3465, 3465, 3465, 3465, 3465, 3431, 3431, 3431, 3431, 3431, 3397, 3397, 3397, 3397, 3397, 3397, 3397, 3363, 3363, 3363, 3363, 3363, 3363, 3363, 3330, 3330, 3330, 3330, 3330, 3298, 3298, 3298, 3267, 3267, 3267, 3267, 3267, 3267, 3267, 3236, 3236, 3236, 3236, 3236, 3236, 3236, 3236, 3236, 3206, 3206, 3206, 3206, 3206, 3176, 3176, 3147, 3147, 3147, 3147, 3147, 3147, 3118, 3118, 3118, 3118, 3118, 3118, 3118, 3118, 3118, 3118, 3090, 3090, 3090, 3090, 3090, 3062, 3062, 3062, 3062, 3062, 3035, 3035, 3035, 3035, 3008, 3008, 3008, 3008, 3008, 3008, 3008, 2982, 2982, 2982, 2982, 2982, 2956, 2956, 2956, 2956, 2931, 2931, 2931, 2931, 2931, 2931, 2931, 2906, 2906, 2906, 2906, 2906, 2882, 2882, 2882, 2882, 2882, 2882, 2858, 2858, 2858, 2858, 2834, 2834, 2834, 2834, 2834, 2834, 2834, 2811, 2811, 2811, 2811, 2811, 2811, 2788, 2788, 2788, 2788, 2788, 2788, 2765, 2765, 2765, 2765, 2765, 2743, 2743, 2743, 2743, 2743, 2721, 2721, 2721, 2721, 2721, 2721, 2700, 2700, 2700, 2700, 2700, 2700, 2679, 2679, 2658, 2658, 2658, 2658, 2658, 2637, 2637, 2637, 2637, 2637, 2637, 2637, 2637, 2637, 2637, 2637, 2617, 2617, 2617, 2617, 2617, 2597, 2597, 2578, 2578, 2578, 2578, 2578, 2578, 2578, 2578, 2558, 2558, 2558, 2558, 2558, 2558, 2558, 2539, 2539, 2539, 2539, 2539, 2539, 2539, 2539, 2539, 2539, 2521, 2521, 2502, 2502, 2502, 2502, 2502, 2502, 2502, 2502, 2484, 2484, 2484, 2484, 2484, 2484, 2484, 2484, 2466, 2466, 2466, 2448, 2448, 2448, 2448, 2448, 2448, 2448, 2431, 2431, 2431, 2431, 2431, 2431, 2431, 2431, 2414, 2414, 2414, 2414, 2397, 2397, 2380, 2380, 2380, 2380, 2380, 2380, 2380, 2364, 2364, 2364, 2380, 2380, 2380, 2364, 2364, 2364, 2364, 2364, 2348, 2348, 2348, 2348, 2348, 2348, 2348, 2332, 2332, 2316, 2316, 2316, 2316, 2300, 2300, 2300, 2300, 2300, 2300, 2300, 2300, 2300, 2285, 2285, 2285, 2285, 2285, 2270, 2270, 2270, 2255, 2255, 2255, 2255, 2255, 2240, 2240, 2240, 2225, 2225, 2225, 2225, 2225,
       4459, 4459, 4459, 4459, 4459, 4459, 4459, 4518, 4459, 4518, 4518, 4518, 4518, 4518, 4518, 4518, 4518, 4518, 4518, 4518, 4518, 4518, 4518, 4518, 4518, 4518, 4518, 4518, 4518, 4518, 4518, 4518, 4518, 4518, 4518, 4518, 4518, 4459, 4459, 4459, 4459, 4459, 4459, 4459, 4459, 4459, 4459, 4459, 4459, 4459, 4459, 4459, 4459, 4459, 4459, 4459, 4459, 4459, 4459, 4459, 4459, 4459, 4459, 4518, 4518, 4459, 4459, 4459, 4459, 4459, 4459, 4518, 4518, 4518, 4459, 4518, 4518, 4518, 4518, 4518, 4518, 4518, 4518, 4518, 4518, 4518, 4518, 4518, 4518, 4518, 4518, 4518, 4518, 4518, 4518, 4518, 4518, 4459, 4459, 4459, 4459, 4402, 4402, 4402, 4402, 4402, 4402, 4402, 4402, 4402, 4402, 4402, 4402, 4346, 4346, 4346, 4291, 4291, 4291, 4238, 4238, 4238, 4238, 4238, 4238, 4186, 4186, 4186, 4186, 4186, 4186, 4186, 4186, 4186, 4186, 4136, 4136, 4136, 4136, 4086, 4086, 4086, 4086, 4038, 4038, 4038, 4038, 4038, 4038, 4038, 3991, 3991, 3991, 3991, 3991, 3991, 3991, 3945, 3945, 3945, 3945, 3945, 3945, 3900, 3900, 3900, 3900, 3900, 3900, 3856, 3856, 3856, 3856, 3856, 3856, 3813, 3813, 3813, 3813, 3813, 3771, 3771, 3771, 3771, 3771, 3771, 3730, 3730, 3730, 3690, 3730, 3690, 3690, 3690, 3690, 3690, 3690, 3690, 3650, 3650, 3650, 3650, 3650, 3650, 3650, 3650, 3612, 3612, 3612, 3612, 3574, 3574, 3574, 3574, 3537, 3537, 3537, 3537, 3537, 3537, 3537, 3501, 3501, 3501, 3501, 3501, 3501, 3501, 3465, 3465, 3465, 3465, 3465, 3431, 3431, 3431, 3431, 3431, 3397, 3397, 3397, 3397, 3397, 3397, 3397, 3363, 3363, 3363, 3363, 3363, 3363, 3363, 3330, 3330, 3330, 3330, 3298, 3298, 3298, 3298, 3267, 3267, 3267, 3267, 3267, 3267, 3267, 3267, 3236, 3236, 3236, 3236, 3236, 3236, 3236, 3236, 3206, 3206, 3206, 3206, 3206, 3176, 3176, 3147, 3147, 3147, 3147, 3147, 3147, 3147, 3118, 3118, 3118, 3118, 3118, 3118, 3090, 3118, 3118, 3090, 3090, 3090, 3090, 3090, 3062, 3062, 3062, 3062, 3062, 3035, 3035, 3035, 3035, 3008, 3008, 3008, 3008, 3008, 3008, 3008, 2982, 2982, 2982, 2982, 2982, 2956, 2956, 2956, 2956, 2931, 2931, 2931, 2931, 2931, 2931, 2931, 2906, 2906, 2906, 2906, 2906, 2906, 2882, 2882, 2882, 2882, 2882, 2858, 2858, 2858, 2858, 2834, 2834, 2834, 2834, 2834, 2834, 2834, 2811, 2811, 2811, 2811, 2811, 2811, 2788, 2788, 2788, 2788, 2788, 2788, 2765, 2765, 2765, 2765, 2765, 2743, 2743, 2743, 2743, 2743, 2743, 2721, 2721, 2721, 2721, 2721, 2721, 2700, 2700, 2700, 2700, 2700, 2679, 2679, 2679, 2679, 2679, 2658, 2658, 2658, 2637, 2637, 2637, 2637, 2637, 2637, 2637, 2637, 2637, 2637, 2637, 2617, 2617, 2617, 2617, 2597, 2597, 2597, 2597, 2597, 2597, 2578, 2578, 2578, 2578, 2558, 2558, 2558, 2558, 2558, 2558, 2558, 2539, 2539, 2539, 2539, 2539, 2539, 2539, 2539, 2539, 2539, 2521, 2521, 2502, 2502, 2502, 2502, 2502, 2502, 2484, 2484, 2484, 2484, 2484, 2484, 2484, 2484, 2484, 2484, 2466, 2466, 2448, 2448, 2448, 2448, 2448, 2448, 2448, 2448, 2448, 2431, 2431, 2431, 2431, 2431, 2431, 2431, 2431, 2414, 2414, 2414, 2397, 2397, 2380, 2380, 2380, 2380, 2380, 2380, 2380, 2364, 2364, 2364, 2364, 2364, 2364, 2364, 2364, 2364, 2364, 2364, 2348, 2348, 2348, 2348, 2348, 2348, 2348, 2348, 2332, 2332, 2316, 2316, 2316, 2300, 2300, 2300, 2300, 2300, 2300, 2300, 2300, 2300, 2285, 2285, 2285, 2285, 2285, 2270, 2270, 2270, 2255, 2255, 2255, 2255, 2255, 2240, 2240, 2240, 2225, 2225, 2225, 2225, 2225,
       4459, 4459, 4459, 4518, 4518, 4518, 4518, 4518, 4518, 4518, 4518, 4518, 4518, 4518, 4518, 4518, 4518, 4518, 4518, 4518, 4518, 4518, 4518, 4518, 4518, 4518, 4518, 4518, 4518, 4518, 4518, 4518, 4518, 4518, 4518, 4518, 4518, 4518, 4518, 4518, 4518, 4518, 4459, 4459, 4518, 4459, 4459, 4459, 4459, 4518, 4518, 4459, 4459, 4459, 4459, 4459, 4518, 4518, 4459, 4459, 4459, 4459, 4459, 4518, 4518, 4459, 4518, 4518, 4518, 4518, 4518, 4518, 4518, 4518, 4518, 4518, 4518, 4518, 4518, 4518, 4518, 4518, 4518, 4518, 4518, 4578, 4518, 4518, 4578, 4578, 4578, 4518, 4518, 4518, 4518, 4518, 4518, 4459, 4459, 4459, 4459, 4402, 4402, 4402, 4402, 4402, 4402, 4402, 4402, 4402, 4402, 4402, 4346, 4346, 4346, 4291, 4291, 4291, 4291, 4238, 4238, 4238, 4238, 4238, 4238, 4186, 4186, 4186, 4186, 4186, 4186, 4186, 4186, 4186, 4186, 4136, 4136, 4136, 4136, 4086, 4086, 4086, 4086, 4086, 4038, 4038, 4038, 4038, 4038, 4038, 3991, 3991, 3991, 3991, 3991, 3945, 3945, 3945, 3945, 3945, 3945, 3945, 3945, 3900, 3900, 3900, 3900, 3900, 3900, 3900, 3856, 3856, 3856, 3856, 3856, 3813, 3813, 3813, 3813, 3813, 3771, 3771, 3771, 3771, 3771, 3771, 3730, 3730, 3730, 3730, 3730, 3730, 3730, 3690, 3690, 3690, 3690, 3690, 3650, 3650, 3650, 3650, 3650, 3650, 3650, 3650, 3612, 3612, 3612, 3612, 3612, 3574, 3574, 3574, 3574, 3537, 3537, 3537, 3537, 3537, 3537, 3537, 3501, 3501, 3501, 3501, 3501, 3501, 3501, 3465, 3465, 3465, 3465, 3431, 3431, 3431, 3431, 3431, 3397, 3397, 3397, 3397, 3397, 3397, 3397, 3363, 3363, 3363, 3363, 3363, 3363, 3363, 3330, 3330, 3330, 3330, 3298, 3298, 3298, 3298, 3267, 3267, 3267, 3267, 3267, 3267, 3267, 3267, 3236, 3236, 3236, 3236, 3236, 3236, 3236, 3206, 3206, 3206, 3206, 3206, 3206, 3176, 3176, 3147, 3147, 3147, 3147, 3147, 3147, 3147, 3147, 3118, 3118, 3118, 3118, 3090, 3090, 3090, 3090, 3090, 3090, 3090, 3090, 3090, 3062, 3062, 3062, 3062, 3062, 3035, 3035, 3035, 3008, 3008, 3008, 3008, 3008, 3008, 3008, 3008, 2982, 2982, 2982, 2982, 2982, 2956, 2956, 2956, 2956, 2931, 2931, 2931, 2931, 2931, 2931, 2931, 2931, 2906, 2906, 2906, 2906, 2906, 2906, 2882, 2882, 2882, 2882, 2858, 2858, 2858, 2858, 2858, 2858, 2834, 2834, 2834, 2834, 2834, 2811, 2811, 2811, 2811, 2811, 2811, 2811, 2788, 2788, 2788, 2788, 2788, 2765, 2765, 2765, 2765, 2765, 2743, 2743, 2743, 2743, 2743, 2721, 2721, 2721, 2721, 2721, 2721, 2721, 2700, 2700, 2700, 2700, 2700, 2700, 2679, 2679, 2679, 2679, 2658, 2658, 2658, 2658, 2658, 2637, 2637, 2637, 2637, 2637, 2637, 2637, 2637, 2637, 2637, 2617, 2617, 2617, 2617, 2597, 2597, 2597, 2597, 2597, 2597, 2578, 2578, 2578, 2558, 2558, 2558, 2558, 2558, 2558, 2558, 2539, 2539, 2558, 2558, 2539, 2539, 2539, 2539, 2539, 2539, 2521, 2521, 2502, 2502, 2502, 2502, 2502, 2484, 2484, 2484, 2484, 2484, 2484, 2484, 2484, 2484, 2484, 2466, 2466, 2466, 2448, 2448, 2448, 2448, 2448, 2448, 2448, 2448, 2448, 2448, 2431, 2431, 2431, 2431, 2431, 2431, 2414, 2414, 2414, 2397, 2397, 2397, 2380, 2380, 2380, 2380, 2380, 2380, 2364, 2364, 2364, 2364, 2364, 2364, 2364, 2364, 2364, 2364, 2364, 2364, 2348, 2348, 2348, 2348, 2348, 2348, 2348, 2348, 2332, 2316, 2316, 2316, 2316, 2300, 2300, 2300, 2300, 2300, 2300, 2300, 2300, 2300, 2285, 2285, 2285, 2285, 2285, 2270, 2270, 2270, 2270, 2255, 2255, 2255, 2255, 2255, 2240, 2240, 2240, 2225, 2225, 2225, 2225,
       4518, 4518, 4518, 4518, 4518, 4518, 4518, 4518, 4518, 4518, 4518, 4578, 4578, 4578, 4578, 4578, 4518, 4578, 4578, 4578, 4518, 4518, 4578, 4578, 4578, 4578, 4578, 4518, 4518, 4518, 4518, 4578, 4578, 4518, 4518, 4518, 4518, 4518, 4518, 4518, 4518, 4518, 4518, 4518, 4518, 4518, 4518, 4518, 4518, 4518, 4518, 4518, 4518, 4518, 4518, 4518, 4518, 4518, 4518, 4518, 4518, 4518, 4518, 4518, 4518, 4518, 4518, 4518, 4518, 4518, 4518, 4518, 4518, 4518, 4518, 4518, 4518, 4518, 4518, 4518, 4518, 4518, 4518, 4518, 4578, 4578, 4578, 4578, 4578, 4578, 4578, 4518, 4518, 4518, 4518, 4518, 4518, 4459, 4459, 4459, 4459, 4459, 4402, 4402, 4402, 4402, 4402, 4402, 4402, 4402, 4346, 4346, 4346, 4346, 4291, 4291, 4291, 4291, 4238, 4238, 4238, 4238, 4238, 4238, 4238, 4186, 4186, 4186, 4186, 4186, 4186, 4186, 4186, 4186, 4186, 4136, 4136, 4136, 4136, 4086, 4086, 4086, 4086, 4086, 4038, 4038, 4038, 4038, 4038, 4038, 3991, 3991, 3991, 3991, 3991, 3945, 3945, 3945, 3945, 3945, 3945, 3945, 3945, 3900, 3900, 3900, 3900, 3900, 3900, 3900, 3856, 3856, 3856, 3856, 3856, 3813, 3813, 3813, 3813, 3813, 3813, 3771, 3771, 3771, 3771, 3771, 3730, 3730, 3730, 3730, 3730, 3730, 3730, 3690, 3690, 3690, 3690, 3690, 3690, 3650, 3650, 3650, 3650, 3650, 3650, 3650, 3612, 3612, 3612, 3612, 3612, 3574, 3574, 3574, 3574, 3537, 3537, 3537, 3537, 3537, 3537, 3537, 3501, 3501, 3501, 3501, 3501, 3501, 3501, 3501, 3465, 3465, 3465, 3431, 3431, 3431, 3431, 3397, 3397, 3397, 3397, 3397, 3397, 3397, 3363, 3363, 3363, 3363, 3363, 3363, 3363, 3363, 3330, 3330, 3330, 3330, 3330, 3298, 3298, 3298, 3267, 3267, 3267, 3267, 3267, 3267, 3267, 3267, 3267, 3267, 3236, 3236, 3236, 3236, 3236, 3206, 3206, 3206, 3206, 3206, 3206, 3176, 3176, 3176, 3147, 3147, 3147, 3147, 3147, 3147, 3118, 3118, 3118, 3118, 3118, 3118, 3090, 3090, 3090, 3090, 3090, 3090, 3090, 3062, 3062, 3062, 3062, 3062, 3035, 3035, 3035, 3008, 3008, 3008, 3008, 3008, 3008, 3008, 3008, 2982, 2982, 2982, 2982, 2982, 2982, 2956, 2956, 2931, 2931, 2931, 2931, 2931, 2931, 2931, 2931, 2931, 2931, 2906, 2906, 2906, 2906, 2906, 2882, 2882, 2882, 2882, 2882, 2858, 2858, 2858, 2858, 2858, 2834, 2834, 2834, 2834, 2834, 2834, 2811, 2811, 2811, 2811, 2811, 2811, 2811, 2788, 2788, 2788, 2788, 2788, 2788, 2765, 2765, 2765, 2765, 2765, 2743, 2743, 2743, 2743, 2721, 2721, 2721, 2721, 2721, 2721, 2700, 2700, 2700, 2700, 2700, 2700, 2679, 2679, 2679, 2679, 2679, 2658, 2658, 2658, 2658, 2658, 2637, 2637, 2637, 2637, 2637, 2637, 2637, 2637, 2637, 2617, 2617, 2617, 2617, 2617, 2597, 2597, 2597, 2597, 2597, 2597, 2578, 2578, 2578, 2578, 2558, 2558, 2558, 2558, 2558, 2558, 2539, 2539, 2558, 2539, 2539, 2539, 2539, 2539, 2539, 2539, 2521, 2521, 2502, 2502, 2502, 2502, 2502, 2484, 2484, 2484, 2484, 2484, 2484, 2484, 2484, 2466, 2466, 2466, 2466, 2466, 2448, 2448, 2448, 2448, 2431, 2448, 2448, 2448, 2448, 2431, 2431, 2431, 2431, 2431, 2431, 2431, 2414, 2414, 2414, 2397, 2397, 2397, 2380, 2380, 2380, 2380, 2380, 2380, 2364, 2364, 2364, 2364, 2364, 2364, 2364, 2364, 2364, 2364, 2364, 2364, 2348, 2348, 2348, 2348, 2348, 2348, 2348, 2348, 2332, 2316, 2316, 2316, 2316, 2300, 2300, 2300, 2300, 2300, 2300, 2300, 2300, 2300, 2285, 2285, 2285, 2285, 2285, 2270, 2270, 2270, 2255, 2255, 2255, 2255, 2255, 2255, 2240, 2240, 2240, 2225, 2225, 2225, 2225,
       4518, 4518, 4518, 4518, 4518, 4518, 4518, 4518, 4518, 4518, 4578, 4578, 4578, 4578, 4578, 4578, 4578, 4578, 4578, 4578, 4578, 4578, 4578, 4578, 4578, 4578, 4578, 4578, 4578, 4578, 4578, 4578, 4578, 4518, 4518, 4518, 4518, 4518, 4518, 4578, 4578, 4578, 4518, 4518, 4578, 4518, 4518, 4518, 4518, 4518, 4518, 4518, 4518, 4518, 4518, 4518, 4518, 4518, 4518, 4518, 4518, 4518, 4518, 4518, 4518, 4518, 4518, 4518, 4518, 4518, 4518, 4518, 4578, 4518, 4518, 4518, 4518, 4518, 4518, 4578, 4578, 4578, 4578, 4578, 4578, 4578, 4578, 4578, 4578, 4578, 4578, 4578, 4518, 4518, 4518, 4518, 4518, 4459, 4459, 4459, 4459, 4459, 4402, 4402, 4402, 4402, 4402, 4402, 4402, 4402, 4402, 4346, 4346, 4346, 4291, 4291, 4291, 4291, 4238, 4238, 4238, 4238, 4238, 4238, 4238, 4186, 4186, 4186, 4186, 4186, 4186, 4186, 4186, 4186, 4186, 4186, 4136, 4136, 4136, 4136, 4086, 4086, 4086, 4086, 4038, 4038, 4038, 4038, 4038, 4038, 3991, 3991, 3991, 3991, 3991, 3945, 3945, 3945, 3945, 3945, 3945, 3945, 3945, 3900, 3900, 3900, 3900, 3900, 3900, 3900, 3900, 3856, 3856, 3856, 3856, 3856, 3813, 3813, 3813, 3813, 3813, 3771, 3771, 3771, 3771, 3771, 3730, 3730, 3730, 3730, 3730, 3730, 3730, 3730, 3690, 3690, 3690, 3690, 3690, 3650, 3650, 3650, 3650, 3650, 3650, 3650, 3612, 3612, 3612, 3612, 3574, 3574, 3574, 3574, 3574, 3537, 3537, 3537, 3537, 3537, 3537, 3537, 3501, 3501, 3501, 3501, 3501, 3501, 3501, 3501, 3465, 3465, 3465, 3431, 3431, 3431, 3431, 3431, 3397, 3397, 3397, 3397, 3397, 3397, 3363, 3363, 3363, 3363, 3363, 3363, 3363, 3363, 3330, 3330, 3330, 3330, 3330, 3298, 3298, 3298, 3267, 3267, 3267, 3267, 3267, 3267, 3267, 3267, 3267, 3267, 3236, 3236, 3236, 3236, 3236, 3236, 3206, 3206, 3206, 3206, 3206, 3206, 3176, 3176, 3147, 3147, 3147, 3147, 3147, 3147, 3118, 3118, 3118, 3118, 3118, 3118, 3090, 3090, 3090, 3090, 3090, 3090, 3090, 3062, 3062, 3062, 3062, 3062, 3035, 3035, 3035, 3008, 3008, 3008, 3008, 3008, 3008, 3008, 3008, 2982, 2982, 2982, 2982, 2982, 2982, 2956, 2956, 2931, 2931, 2931, 2931, 2931, 2931, 2931, 2931, 2906, 2906, 2906, 2906, 2906, 2906, 2906, 2882, 2882, 2882, 2882, 2858, 2858, 2858, 2858, 2858, 2858, 2834, 2834, 2834, 2834, 2834, 2834, 2811, 2811, 2811, 2811, 2811, 2811, 2811, 2788, 2788, 2788, 2788, 2788, 2788, 2765, 2765, 2765, 2765, 2765, 2765, 2743, 2743, 2743, 2721, 2721, 2721, 2721, 2721, 2721, 2700, 2700, 2700, 2700, 2700, 2700, 2679, 2679, 2658, 2679, 2679, 2658, 2658, 2658, 2658, 2658, 2658, 2658, 2658, 2637, 2637, 2637, 2637, 2637, 2637, 2637, 2617, 2617, 2617, 2617, 2597, 2597, 2597, 2597, 2597, 2578, 2578, 2578, 2578, 2558, 2558, 2558, 2558, 2558, 2558, 2539, 2539, 2539, 2539, 2539, 2539, 2539, 2539, 2539, 2539, 2521, 2521, 2502, 2502, 2502, 2502, 2502, 2502, 2484, 2484, 2484, 2484, 2484, 2484, 2484, 2484, 2466, 2466, 2466, 2466, 2448, 2448, 2448, 2448, 2431, 2431, 2431, 2448, 2448, 2431, 2431, 2431, 2431, 2431, 2431, 2431, 2431, 2414, 2414, 2414, 2414, 2397, 2397, 2380, 2380, 2380, 2380, 2380, 2380, 2364, 2364, 2364, 2364, 2364, 2364, 2364, 2364, 2364, 2364, 2364, 2364, 2348, 2348, 2348, 2348, 2348, 2348, 2348, 2332, 2332, 2316, 2316, 2316, 2316, 2300, 2300, 2300, 2300, 2300, 2300, 2300, 2300, 2285, 2285, 2285, 2285, 2285, 2285, 2270, 2270, 2270, 2255, 2255, 2255, 2255, 2255, 2255, 2240, 2240, 2240, 2225, 2225, 2225, 2225,
       4518, 4518, 4578, 4578, 4578, 4578, 4578, 4578, 4578, 4578, 4578, 4578, 4578, 4641, 4578, 4578, 4578, 4578, 4578, 4578, 4578, 4578, 4578, 4578, 4578, 4578, 4578, 4578, 4578, 4578, 4578, 4578, 4578, 4578, 4518, 4518, 4578, 4578, 4578, 4578, 4578, 4578, 4578, 4578, 4578, 4578, 4578, 4578, 4578, 4578, 4578, 4578, 4578, 4518, 4518, 4518, 4578, 4578, 4578, 4518, 4518, 4518, 4518, 4578, 4578, 4518, 4518, 4578, 4578, 4578, 4578, 4578, 4578, 4578, 4578, 4578, 4578, 4578, 4578, 4578, 4578, 4578, 4578, 4578, 4578, 4578, 4578, 4578, 4578, 4578, 4578, 4578, 4578, 4518, 4518, 4518, 4518, 4459, 4459, 4459, 4459, 4459, 4402, 4402, 4402, 4402, 4402, 4402, 4402, 4402, 4402, 4346, 4346, 4346, 4346, 4291, 4291, 4291, 4291, 4238, 4238, 4238, 4238, 4238, 4238, 4186, 4186, 4186, 4186, 4186, 4186, 4186, 4186, 4186, 4186, 4186, 4136, 4136, 4136, 4136, 4086, 4086, 4086, 4086, 4038, 4038, 4038, 4038, 4038, 4038, 3991, 3991, 3991, 3991, 3991, 3945, 3945, 3945, 3945, 3945, 3945, 3945, 3945, 3945, 3900, 3900, 3900, 3900, 3900, 3900, 3900, 3856, 3856, 3856, 3856, 3856, 3813, 3813, 3813, 3813, 3771, 3771, 3771, 3771, 3771, 3771, 3730, 3730, 3730, 3730, 3730, 3730, 3730, 3730, 3690, 3690, 3690, 3690, 3690, 3650, 3650, 3650, 3650, 3650, 3650, 3612, 3612, 3612, 3612, 3612, 3574, 3574, 3574, 3574, 3574, 3537, 3537, 3537, 3537, 3537, 3537, 3501, 3501, 3501, 3501, 3501, 3501, 3501, 3501, 3501, 3465, 3465, 3465, 3431, 3431, 3431, 3431, 3431, 3397, 3397, 3397, 3397, 3397, 3397, 3363, 3363, 3363, 3363, 3363, 3363, 3363, 3363, 3330, 3330, 3330, 3330, 3298, 3298, 3298, 3298, 3267, 3267, 3267, 3267, 3267, 3267, 3267, 3267, 3267, 3236, 3236, 3236, 3236, 3236, 3236, 3236, 3206, 3206, 3206, 3206, 3206, 3206, 3176, 3176, 3147, 3147, 3147, 3147, 3147, 3147, 3147, 3118, 3118, 3118, 3118, 3118, 3090, 3090, 3090, 3090, 3090, 3090, 3062, 3062, 3062, 3062, 3062, 3035, 3035, 3035, 3035, 3008, 3008, 3008, 3008, 3008, 3008, 3008, 3008, 2982, 2982, 2982, 2982, 2982, 2982, 2956, 2956, 2956, 2956, 2931, 2931, 2931, 2931, 2931, 2906, 2906, 2906, 2906, 2906, 2906, 2906, 2906, 2882, 2882, 2882, 2882, 2858, 2858, 2858, 2858, 2858, 2858, 2834, 2834, 2834, 2834, 2834, 2834, 2811, 2811, 2811, 2811, 2811, 2811, 2811, 2788, 2788, 2788, 2788, 2788, 2788, 2765, 2765, 2765, 2765, 2765, 2743, 2743, 2743, 2743, 2721, 2721, 2721, 2721, 2721, 2721, 2700, 2700, 2700, 2700, 2700, 2700, 2679, 2679, 2658, 2679, 2679, 2658, 2658, 2658, 2658, 2658, 2658, 2658, 2658, 2658, 2637, 2637, 2637, 2637, 2637, 2637, 2637, 2617, 2617, 2617, 2597, 2597, 2597, 2597, 2597, 2578, 2578, 2558, 2558, 2558, 2558, 2558, 2558, 2539, 2539, 2539, 2539, 2539, 2539, 2539, 2539, 2521, 2521, 2521, 2521, 2521, 2521, 2502, 2502, 2502, 2502, 2502, 2502, 2502, 2502, 2502, 2484, 2484, 2484, 2484, 2484, 2484, 2466, 2466, 2466, 2448, 2448, 2448, 2431, 2431, 2431, 2431, 2448, 2448, 2448, 2431, 2431, 2431, 2431, 2431, 2431, 2431, 2431, 2414, 2414, 2414, 2414, 2397, 2397, 2397, 2380, 2380, 2380, 2380, 2364, 2364, 2364, 2364, 2364, 2364, 2364, 2364, 2364, 2364, 2364, 2348, 2348, 2348, 2348, 2348, 2348, 2348, 2348, 2332, 2332, 2316, 2316, 2316, 2316, 2300, 2300, 2300, 2300, 2300, 2300, 2300, 2300, 2285, 2285, 2285, 2285, 2285, 2285, 2270, 2270, 2270, 2270, 2270, 2255, 2255, 2255, 2255, 2255, 2240, 2240, 2225, 2225, 2225, 2225,
       4578, 4578, 4578, 4578, 4578, 4578, 4578, 4578, 4641, 4641, 4641, 4641, 4641, 4641, 4641, 4641, 4641, 4641, 4641, 4641, 4641, 4641, 4641, 4578, 4578, 4578, 4578, 4578, 4578, 4578, 4578, 4578, 4578, 4578, 4578, 4578, 4578, 4578, 4578, 4578, 4578, 4578, 4578, 4578, 4578, 4578, 4578, 4578, 4578, 4578, 4578, 4578, 4578, 4578, 4578, 4578, 4578, 4578, 4578, 4578, 4578, 4578, 4578, 4578, 4578, 4578, 4578, 4578, 4578, 4578, 4578, 4578, 4578, 4578, 4578, 4578, 4578, 4578, 4578, 4578, 4578, 4578, 4578, 4578, 4578, 4578, 4578, 4578, 4578, 4578, 4578, 4578, 4578, 4518, 4518, 4518, 4518, 4459, 4459, 4459, 4459, 4459, 4459, 4459, 4402, 4402, 4402, 4402, 4402, 4402, 4346, 4346, 4346, 4346, 4291, 4291, 4291, 4291, 4291, 4291, 4238, 4238, 4238, 4238, 4238, 4238, 4238, 4186, 4186, 4186, 4186, 4186, 4186, 4186, 4186, 4136, 4136, 4136, 4136, 4136, 4086, 4086, 4086, 4086, 4038, 4038, 4038, 4038, 4038, 4038, 4038, 3991, 3991, 3991, 3991, 3945, 3945, 3945, 3945, 3945, 3945, 3945, 3945, 3945, 3900, 3900, 3900, 3900, 3900, 3900, 3856, 3856, 3856, 3856, 3856, 3856, 3813, 3813, 3813, 3813, 3771, 3771, 3771, 3771, 3771, 3771, 3730, 3730, 3730, 3730, 3730, 3730, 3730, 3730, 3690, 3690, 3690, 3690, 3690, 3650, 3650, 3650, 3650, 3612, 3612, 3612, 3612, 3612, 3612, 3612, 3574, 3574, 3574, 3537, 3537, 3537, 3537, 3537, 3537, 3537, 3501, 3501, 3501, 3501, 3501, 3501, 3501, 3501, 3501, 3465, 3465, 3465, 3465, 3431, 3431, 3431, 3431, 3431, 3397, 3397, 3397, 3397, 3397, 3397, 3397, 3363, 3363, 3363, 3363, 3363, 3363, 3363, 3330, 3330, 3330, 3330, 3330, 3298, 3298, 3298, 3298, 3267, 3267, 3267, 3267, 3267, 3267, 3267, 3236, 3236, 3236, 3236, 3236, 3236, 3236, 3206, 3206, 3206, 3206, 3206, 3206, 3206, 3176, 3176, 3147, 3147, 3147, 3147, 3147, 3147, 3147, 3118, 3118, 3118, 3118, 3118, 3118, 3118, 3090, 3090, 3090, 3090, 3062, 3062, 3062, 3062, 3035, 3035, 3035, 3035, 3035, 3008, 3008, 3008, 3008, 3008, 3008, 3008, 3008, 2982, 2982, 2982, 2982, 2982, 2982, 2956, 2956, 2956, 2956, 2956, 2931, 2931, 2931, 2931, 2931, 2906, 2906, 2906, 2906, 2906, 2906, 2906, 2882, 2882, 2882, 2882, 2858, 2858, 2858, 2858, 2858, 2858, 2834, 2834, 2834, 2834, 2834, 2834, 2811, 2811, 2811, 2811, 2811, 2811, 2788, 2788, 2788, 2788, 2788, 2788, 2765, 2765, 2765, 2765, 2765, 2765, 2743, 2743, 2743, 2743, 2721, 2721, 2721, 2721, 2721, 2721, 2700, 2700, 2700, 2700, 2700, 2700, 2679, 2679, 2658, 2679, 2679, 2679, 2658, 2658, 2658, 2658, 2658, 2658, 2658, 2658, 2637, 2637, 2637, 2637, 2637, 2637, 2637, 2617, 2617, 2617, 2617, 2597, 2597, 2597, 2578, 2578, 2578, 2558, 2558, 2558, 2558, 2558, 2558, 2539, 2539, 2539, 2539, 2539, 2539, 2539, 2539, 2539, 2521, 2521, 2521, 2521, 2521, 2521, 2502, 2502, 2502, 2502, 2502, 2502, 2502, 2502, 2484, 2484, 2502, 2484, 2484, 2484, 2466, 2448, 2448, 2448, 2448, 2448, 2431, 2431, 2431, 2431, 2448, 2448, 2448, 2448, 2448, 2448, 2431, 2431, 2431, 2431, 2431, 2414, 2414, 2414, 2414, 2414, 2397, 2397, 2397, 2397, 2380, 2380, 2380, 2364, 2364, 2364, 2364, 2364, 2364, 2348, 2348, 2348, 2348, 2348, 2348, 2348, 2348, 2348, 2348, 2348, 2332, 2332, 2332, 2316, 2316, 2316, 2316, 2316, 2300, 2300, 2300, 2300, 2300, 2300, 2300, 2300, 2285, 2285, 2285, 2285, 2285, 2285, 2270, 2270, 2270, 2270, 2270, 2255, 2255, 2255, 2255, 2240, 2240, 2225, 2225, 2225, 2225,
       4578, 4578, 4578, 4578, 4641, 4641, 4641, 4641, 4641, 4641, 4641, 4641, 4641, 4641, 4641, 4641, 4641, 4641, 4641, 4641, 4641, 4641, 4641, 4641, 4641, 4578, 4578, 4578, 4578, 4578, 4578, 4578, 4578, 4578, 4578, 4578, 4578, 4578, 4578, 4578, 4578, 4578, 4578, 4578, 4578, 4578, 4578, 4578, 4578, 4578, 4578, 4578, 4578, 4578, 4578, 4578, 4578, 4578, 4641, 4578, 4578, 4578, 4578, 4641, 4578, 4578, 4578, 4578, 4578, 4578, 4578, 4578, 4641, 4641, 4578, 4641, 4641, 4641, 4578, 4578, 4578, 4578, 4578, 4578, 4578, 4578, 4578, 4578, 4578, 4578, 4578, 4578, 4578, 4518, 4518, 4518, 4518, 4459, 4459, 4459, 4459, 4459, 4459, 4459, 4402, 4402, 4402, 4402, 4402, 4402, 4346, 4346, 4346, 4346, 4346, 4291, 4291, 4291, 4291, 4291, 4291, 4238, 4238, 4238, 4238, 4238, 4238, 4186, 4186, 4186, 4186, 4186, 4186, 4186, 4186, 4136, 4136, 4136, 4136, 4086, 4086, 4086, 4086, 4086, 4038, 4038, 4038, 4038, 4038, 4038, 4038, 3991, 3991, 3991, 3991, 3945, 3945, 3945, 3945, 3945, 3945, 3945, 3945, 3945, 3900, 3900, 3900, 3900, 3900, 3900, 3856, 3856, 3856, 3856, 3856, 3813, 3813, 3813, 3813, 3813, 3771, 3771, 3771, 3771, 3771, 3771, 3730, 3730, 3730, 3730, 3730, 3730, 3730, 3730, 3690, 3690, 3690, 3690, 3650, 3650, 3650, 3650, 3650, 3612, 3612, 3612, 3612, 3612, 3612, 3612, 3574, 3574, 3574, 3537, 3537, 3537, 3537, 3537, 3537, 3501, 3501, 3501, 3501, 3501, 3501, 3501, 3501, 3501, 3501, 3465, 3465, 3465, 3465, 3431, 3431, 3431, 3431, 3431, 3397, 3397, 3397, 3397, 3397, 3397, 3397, 3397, 3363, 3363, 3363, 3363, 3363, 3363, 3330, 3330, 3330, 3330, 3330, 3330, 3298, 3298, 3298, 3267, 3267, 3267, 3267, 3267, 3267, 3267, 3267, 3236, 3236, 3236, 3236, 3236, 3236, 3206, 3206, 3206, 3206, 3206, 3206, 3206, 3176, 3176, 3147, 3147, 3147, 3147, 3147, 3147, 3147, 3118, 3118, 3118, 3118, 3118, 3118, 3118, 3090, 3090, 3090, 3090, 3062, 3062, 3062, 3062, 3035, 3035, 3035, 3035, 3035, 3008, 3008, 3008, 3008, 3008, 3008, 3008, 3008, 2982, 2982, 2982, 2982, 2982, 2982, 2982, 2956, 2956, 2956, 2956, 2931, 2931, 2931, 2931, 2931, 2906, 2906, 2906, 2906, 2906, 2906, 2882, 2882, 2882, 2882, 2882, 2858, 2858, 2858, 2858, 2858, 2834, 2834, 2834, 2834, 2834, 2834, 2811, 2811, 2811, 2811, 2811, 2811, 2811, 2788, 2788, 2788, 2788, 2788, 2788, 2765, 2765, 2765, 2765, 2765, 2765, 2743, 2743, 2743, 2743, 2743, 2721, 2721, 2721, 2721, 2721, 2700, 2700, 2700, 2700, 2700, 2700, 2679, 2679, 2658, 2679, 2679, 2679, 2658, 2658, 2658, 2658, 2658, 2658, 2658, 2658, 2637, 2637, 2637, 2637, 2637, 2637, 2617, 2617, 2617, 2617, 2597, 2597, 2597, 2597, 2578, 2578, 2578, 2578, 2558, 2558, 2558, 2558, 2558, 2558, 2558, 2539, 2539, 2539, 2539, 2539, 2539, 2539, 2521, 2521, 2521, 2521, 2521, 2521, 2502, 2502, 2502, 2502, 2502, 2502, 2502, 2502, 2502, 2502, 2502, 2484, 2484, 2484, 2466, 2466, 2466, 2448, 2448, 2448, 2448, 2431, 2431, 2431, 2448, 2448, 2448, 2448, 2448, 2448, 2431, 2431, 2431, 2431, 2431, 2414, 2414, 2414, 2414, 2414, 2414, 2397, 2397, 2397, 2380, 2380, 2380, 2364, 2364, 2364, 2364, 2364, 2348, 2348, 2348, 2348, 2348, 2348, 2348, 2348, 2348, 2348, 2348, 2348, 2332, 2332, 2332, 2332, 2316, 2316, 2316, 2316, 2316, 2300, 2300, 2300, 2300, 2300, 2300, 2300, 2285, 2285, 2285, 2285, 2285, 2285, 2270, 2270, 2270, 2270, 2270, 2255, 2255, 2255, 2255, 2240, 2240, 2225, 2225, 2225, 2225,
       4578, 4578, 4578, 4578, 4641, 4641, 4641, 4641, 4641, 4641, 4641, 4641, 4641, 4641, 4641, 4641, 4641, 4641, 4641, 4641, 4641, 4641, 4641, 4641, 4641, 4641, 4578, 4578, 4578, 4578, 4578, 4578, 4578, 4578, 4578, 4578, 4578, 4641, 4641, 4641, 4641, 4641, 4641, 4641, 4641, 4578, 4578, 4578, 4578, 4578, 4578, 4578, 4641, 4641, 4641, 4641, 4641, 4641, 4641, 4641, 4641, 4641, 4641, 4641, 4641, 4578, 4641, 4641, 4641, 4641, 4641, 4641, 4641, 4641, 4641, 4641, 4641, 4641, 4641, 4641, 4641, 4578, 4641, 4578, 4578, 4578, 4578, 4578, 4578, 4578, 4578, 4578, 4578, 4518, 4518, 4518, 4459, 4459, 4459, 4459, 4459, 4459, 4402, 4402, 4402, 4402, 4402, 4402, 4402, 4402, 4346, 4346, 4346, 4346, 4346, 4346, 4291, 4291, 4291, 4291, 4291, 4238, 4238, 4238, 4238, 4238, 4238, 4186, 4186, 4186, 4186, 4186, 4186, 4186, 4136, 4136, 4136, 4136, 4136, 4136, 4086, 4086, 4086, 4086, 4038, 4038, 4038, 4038, 4038, 4038, 4038, 3991, 3991, 3991, 3991, 3945, 3945, 3945, 3945, 3945, 3945, 3945, 3900, 3900, 3900, 3900, 3900, 3900, 3900, 3856, 3856, 3856, 3856, 3856, 3856, 3813, 3813, 3813, 3813, 3813, 3771, 3771, 3771, 3771, 3771, 3771, 3730, 3730, 3730, 3730, 3730, 3730, 3730, 3730, 3690, 3690, 3690, 3690, 3650, 3650, 3650, 3650, 3650, 3650, 3612, 3612, 3612, 3612, 3612, 3574, 3574, 3574, 3574, 3537, 3537, 3537, 3537, 3537, 3537, 3501, 3501, 3501, 3501, 3501, 3501, 3501, 3501, 3501, 3501, 3501, 3465, 3465, 3465, 3465, 3431, 3431, 3431, 3431, 3397, 3397, 3397, 3397, 3397, 3397, 3397, 3397, 3397, 3363, 3363, 3363, 3363, 3363, 3363, 3330, 3330, 3330, 3330, 3330, 3298, 3298, 3298, 3267, 3267, 3267, 3267, 3267, 3267, 3267, 3236, 3236, 3236, 3236, 3236, 3236, 3236, 3206, 3206, 3206, 3206, 3206, 3206, 3206, 3176, 3176, 3147, 3147, 3147, 3147, 3147, 3147, 3147, 3118, 3118, 3118, 3118, 3118, 3118, 3090, 3090, 3090, 3090, 3090, 3062, 3062, 3062, 3062, 3035, 3035, 3035, 3035, 3035, 3035, 3035, 3008, 3008, 3008, 3008, 3008, 3008, 2982, 2982, 2982, 2982, 2982, 2982, 2982, 2956, 2956, 2956, 2956, 2956, 2931, 2931, 2931, 2931, 2906, 2906, 2906, 2906, 2906, 2906, 2906, 2882, 2882, 2882, 2882, 2858, 2858, 2834, 2834, 2834, 2834, 2834, 2834, 2834, 2834, 2811, 2811, 2811, 2811, 2811, 2811, 2811, 2811, 2788, 2788, 2788, 2788, 2788, 2788, 2765, 2765, 2765, 2765, 2765, 2765, 2743, 2743, 2743, 2743, 2743, 2721, 2721, 2721, 2721, 2721, 2700, 2700, 2700, 2700, 2700, 2700, 2679, 2679, 2658, 2679, 2679, 2679, 2658, 2658, 2658, 2658, 2658, 2658, 2658, 2637, 2637, 2637, 2637, 2637, 2617, 2617, 2617, 2617, 2617, 2617, 2617, 2597, 2597, 2597, 2597, 2578, 2578, 2578, 2578, 2558, 2558, 2558, 2558, 2558, 2558, 2539, 2539, 2539, 2539, 2539, 2539, 2539, 2521, 2521, 2521, 2521, 2521, 2521, 2521, 2521, 2502, 2502, 2502, 2502, 2502, 2502, 2502, 2502, 2502, 2484, 2484, 2484, 2466, 2466, 2466, 2448, 2448, 2448, 2448, 2448, 2431, 2448, 2448, 2448, 2448, 2448, 2448, 2448, 2431, 2431, 2431, 2431, 2431, 2431, 2414, 2414, 2414, 2414, 2414, 2397, 2397, 2397, 2397, 2380, 2380, 2380, 2364, 2364, 2364, 2364, 2348, 2348, 2348, 2348, 2348, 2348, 2348, 2332, 2332, 2332, 2332, 2348, 2332, 2332, 2332, 2332, 2332, 2316, 2316, 2316, 2316, 2300, 2300, 2300, 2300, 2300, 2300, 2300, 2300, 2300, 2285, 2285, 2285, 2285, 2285, 2285, 2270, 2270, 2270, 2255, 2255, 2255, 2255, 2240, 2240, 2225, 2225, 2225, 2225,
       4578, 4578, 4578, 4578, 4641, 4641, 4641, 4641, 4641, 4641, 4641, 4641, 4641, 4641, 4641, 4641, 4641, 4578, 4578, 4641, 4641, 4641, 4641, 4641, 4641, 4641, 4641, 4641, 4641, 4641, 4641, 4641, 4641, 4578, 4578, 4641, 4641, 4641, 4641, 4641, 4641, 4641, 4641, 4641, 4641, 4641, 4641, 4578, 4641, 4641, 4641, 4641, 4641, 4641, 4641, 4641, 4641, 4641, 4641, 4641, 4641, 4641, 4641, 4641, 4641, 4641, 4641, 4641, 4641, 4641, 4641, 4641, 4641, 4641, 4641, 4641, 4641, 4641, 4641, 4641, 4641, 4641, 4641, 4641, 4578, 4578, 4578, 4578, 4578, 4578, 4578, 4578, 4578, 4518, 4518, 4518, 4459, 4459, 4459, 4459, 4459, 4459, 4459, 4459, 4402, 4402, 4402, 4402, 4402, 4402, 4346, 4346, 4346, 4346, 4346, 4346, 4291, 4291, 4291, 4291, 4291, 4238, 4238, 4238, 4238, 4238, 4238, 4186, 4186, 4186, 4186, 4186, 4136, 4136, 4136, 4136, 4136, 4136, 4136, 4136, 4086, 4086, 4086, 4086, 4038, 4038, 4038, 4038, 4038, 4038, 3991, 3991, 3991, 3991, 3991, 3945, 3945, 3945, 3945, 3945, 3945, 3945, 3900, 3945, 3900, 3900, 3900, 3900, 3900, 3856, 3856, 3856, 3856, 3856, 3813, 3813, 3813, 3813, 3813, 3771, 3771, 3771, 3771, 3771, 3771, 3771, 3730, 3730, 3730, 3730, 3730, 3730, 3730, 3730, 3690, 3690, 3690, 3690, 3650, 3650, 3650, 3650, 3650, 3650, 3612, 3612, 3612, 3612, 3574, 3574, 3574, 3574, 3574, 3537, 3537, 3537, 3537, 3537, 3537, 3537, 3501, 3501, 3501, 3501, 3501, 3501, 3501, 3501, 3501, 3501, 3465, 3465, 3465, 3431, 3431, 3431, 3431, 3431, 3397, 3397, 3397, 3397, 3397, 3397, 3397, 3397, 3397, 3363, 3363, 3363, 3363, 3363, 3363, 3330, 3330, 3330, 3330, 3330, 3298, 3298, 3298, 3298, 3267, 3267, 3267, 3267, 3267, 3267, 3236, 3236, 3236, 3236, 3236, 3236, 3236, 3206, 3206, 3206, 3206, 3206, 3206, 3206, 3176, 3176, 3176, 3147, 3147, 3147, 3147, 3147, 3147, 3118, 3118, 3118, 3118, 3118, 3118, 3118, 3090, 3090, 3090, 3090, 3062, 3062, 3062, 3062, 3035, 3035, 3035, 3035, 3035, 3035, 3035, 3008, 3008, 3008, 3008, 3008, 3008, 2982, 2982, 2982, 2982, 2982, 2982, 2982, 2956, 2956, 2956, 2956, 2956, 2931, 2931, 2931, 2931, 2906, 2906, 2906, 2906, 2906, 2906, 2906, 2882, 2882, 2882, 2882, 2858, 2858, 2834, 2834, 2834, 2834, 2834, 2834, 2834, 2834, 2834, 2811, 2811, 2811, 2811, 2811, 2811, 2811, 2788, 2788, 2788, 2788, 2788, 2788, 2765, 2765, 2765, 2765, 2765, 2743, 2743, 2743, 2743, 2743, 2743, 2721, 2721, 2721, 2721, 2721, 2700, 2700, 2700, 2700, 2700, 2679, 2679, 2679, 2658, 2679, 2679, 2679, 2658, 2658, 2658, 2658, 2658, 2658, 2658, 2637, 2637, 2637, 2637, 2637, 2617, 2617, 2617, 2617, 2617, 2617, 2617, 2597, 2597, 2597, 2597, 2578, 2578, 2578, 2578, 2558, 2558, 2558, 2558, 2558, 2558, 2539, 2539, 2539, 2539, 2539, 2539, 2539, 2521, 2521, 2521, 2521, 2521, 2521, 2521, 2502, 2502, 2502, 2502, 2502, 2502, 2502, 2502, 2502, 2502, 2484, 2484, 2484, 2484, 2466, 2466, 2466, 2448, 2448, 2448, 2448, 2448, 2448, 2448, 2448, 2448, 2448, 2448, 2448, 2448, 2431, 2431, 2431, 2431, 2431, 2414, 2414, 2414, 2414, 2414, 2397, 2397, 2397, 2380, 2380, 2380, 2380, 2364, 2364, 2364, 2364, 2348, 2348, 2348, 2348, 2348, 2348, 2332, 2332, 2332, 2332, 2332, 2348, 2348, 2332, 2332, 2332, 2332, 2332, 2316, 2316, 2316, 2300, 2300, 2300, 2300, 2300, 2300, 2300, 2300, 2300, 2285, 2285, 2285, 2285, 2285, 2285, 2270, 2270, 2270, 2270, 2255, 2255, 2255, 2240, 2240, 2225, 2225, 2225, 2225,
       4578, 4578, 4578, 4578, 4641, 4641, 4641, 4641, 4641, 4641, 4641, 4641, 4641, 4641, 4641, 4641, 4641, 4578, 4578, 4641, 4641, 4641, 4641, 4641, 4641, 4641, 4641, 4641, 4641, 4641, 4641, 4641, 4641, 4641, 4641, 4641, 4641, 4641, 4641, 4641, 4641, 4641, 4641, 4641, 4641, 4641, 4641, 4641, 4641, 4641, 4641, 4641, 4641, 4641, 4641, 4641, 4641, 4641, 4704, 4641, 4641, 4641, 4641, 4641, 4641, 4641, 4641, 4641, 4641, 4641, 4641, 4641, 4641, 4641, 4641, 4641, 4641, 4641, 4641, 4641, 4641, 4641, 4641, 4641, 4641, 4641, 4578, 4578, 4578, 4578, 4578, 4578, 4578, 4518, 4518, 4518, 4459, 4459, 4459, 4459, 4459, 4459, 4459, 4459, 4459, 4402, 4402, 4402, 4402, 4402, 4346, 4346, 4346, 4346, 4346, 4346, 4346, 4291, 4291, 4291, 4291, 4291, 4238, 4238, 4238, 4238, 4238, 4186, 4186, 4186, 4186, 4186, 4136, 4136, 4136, 4136, 4136, 4136, 4086, 4086, 4086, 4086, 4086, 4038, 4038, 4038, 4038, 4038, 4038, 4038, 3991, 3991, 3991, 3991, 3991, 3945, 3945, 3945, 3945, 3945, 3945, 3945, 3945, 3945, 3900, 3900, 3900, 3900, 3900, 3856, 3856, 3856, 3856, 3813, 3813, 3813, 3813, 3813, 3813, 3771, 3771, 3771, 3771, 3771, 3771, 3771, 3730, 3730, 3730, 3730, 3730, 3730, 3730, 3690, 3690, 3690, 3690, 3690, 3650, 3650, 3650, 3650, 3650, 3612, 3612, 3612, 3612, 3612, 3574, 3574, 3574, 3574, 3574, 3537, 3537, 3537, 3537, 3537, 3537, 3537, 3501, 3501, 3501, 3501, 3501, 3501, 3501, 3501, 3501, 3501, 3465, 3465, 3465, 3431, 3431, 3431, 3431, 3397, 3397, 3397, 3397, 3397, 3397, 3397, 3397, 3397, 3363, 3363, 3363, 3363, 3363, 3363, 3363, 3330, 3330, 3330, 3330, 3330, 3298, 3298, 3298, 3298, 3267, 3267, 3267, 3267, 3267, 3267, 3267, 3267, 3236, 3236, 3236, 3236, 3236, 3206, 3206, 3206, 3206, 3206, 3206, 3176, 3176, 3176, 3176, 3147, 3147, 3147, 3147, 3147, 3147, 3118, 3118, 3118, 3118, 3118, 3118, 3118, 3090, 3090, 3090, 3090, 3062, 3062, 3062, 3062, 3062, 3035, 3035, 3035, 3035, 3008, 3008, 3008, 3008, 3008, 3008, 3008, 2982, 2982, 2982, 2982, 2982, 2982, 2982, 2982, 2956, 2956, 2956, 2956, 2956, 2931, 2931, 2931, 2931, 2906, 2906, 2906, 2906, 2906, 2906, 2906, 2882, 2882, 2882, 2882, 2858, 2858, 2834, 2834, 2834, 2834, 2834, 2834, 2834, 2834, 2811, 2811, 2811, 2811, 2811, 2811, 2811, 2811, 2788, 2788, 2788, 2788, 2788, 2788, 2765, 2765, 2765, 2765, 2743, 2743, 2743, 2743, 2743, 2743, 2743, 2721, 2721, 2721, 2721, 2721, 2700, 2700, 2700, 2700, 2700, 2679, 2679, 2658, 2658, 2658, 2658, 2658, 2658, 2658, 2658, 2658, 2658, 2658, 2658, 2658, 2637, 2637, 2637, 2637, 2617, 2617, 2617, 2617, 2617, 2617, 2617, 2597, 2597, 2597, 2597, 2578, 2578, 2578, 2578, 2558, 2558, 2558, 2558, 2558, 2558, 2539, 2539, 2539, 2539, 2539, 2539, 2539, 2521, 2521, 2521, 2521, 2521, 2521, 2521, 2521, 2521, 2521, 2521, 2502, 2502, 2502, 2502, 2502, 2502, 2484, 2484, 2484, 2484, 2466, 2466, 2466, 2466, 2466, 2448, 2448, 2448, 2448, 2448, 2448, 2448, 2448, 2448, 2448, 2431, 2431, 2431, 2431, 2431, 2431, 2414, 2414, 2414, 2414, 2414, 2397, 2397, 2397, 2380, 2380, 2380, 2380, 2364, 2364, 2364, 2364, 2348, 2348, 2348, 2348, 2348, 2332, 2332, 2332, 2332, 2332, 2332, 2332, 2332, 2332, 2332, 2332, 2332, 2332, 2332, 2316, 2316, 2316, 2300, 2300, 2300, 2300, 2300, 2300, 2300, 2285, 2285, 2285, 2285, 2285, 2285, 2285, 2270, 2270, 2270, 2270, 2255, 2255, 2255, 2240, 2240, 2240, 2225, 2225, 2225,
       4578, 4578, 4578, 4578, 4641, 4641, 4641, 4641, 4641, 4578, 4578, 4578, 4641, 4641, 4641, 4641, 4578, 4578, 4578, 4641, 4641, 4641, 4641, 4641, 4641, 4641, 4641, 4641, 4641, 4641, 4641, 4641, 4641, 4641, 4641, 4641, 4641, 4641, 4641, 4704, 4704, 4641, 4704, 4704, 4704, 4704, 4641, 4641, 4641, 4641, 4641, 4641, 4641, 4641, 4704, 4704, 4704, 4704, 4704, 4704, 4704, 4704, 4704, 4704, 4641, 4641, 4641, 4704, 4641, 4641, 4641, 4641, 4641, 4641, 4704, 4704, 4641, 4641, 4641, 4641, 4641, 4641, 4641, 4641, 4641, 4641, 4578, 4578, 4578, 4578, 4578, 4578, 4578, 4518, 4518, 4518, 4459, 4459, 4459, 4459, 4459, 4459, 4459, 4459, 4459, 4459, 4402, 4402, 4402, 4402, 4346, 4346, 4346, 4346, 4346, 4346, 4346, 4291, 4291, 4291, 4291, 4291, 4238, 4238, 4238, 4238, 4238, 4186, 4186, 4186, 4186, 4186, 4136, 4136, 4136, 4136, 4086, 4086, 4086, 4086, 4086, 4086, 4086, 4038, 4038, 4038, 4038, 4038, 4038, 4038, 3991, 3991, 3991, 3991, 3991, 3991, 3991, 3945, 3945, 3945, 3945, 3945, 3945, 3945, 3900, 3900, 3900, 3900, 3900, 3856, 3856, 3856, 3856, 3813, 3813, 3813, 3813, 3813, 3771, 3771, 3771, 3771, 3771, 3771, 3771, 3771, 3730, 3730, 3730, 3730, 3730, 3730, 3730, 3690, 3690, 3690, 3690, 3650, 3650, 3650, 3650, 3650, 3650, 3612, 3612, 3612, 3612, 3612, 3574, 3574, 3574, 3574, 3574, 3537, 3537, 3537, 3537, 3537, 3537, 3537, 3501, 3501, 3501, 3501, 3501, 3501, 3501, 3501, 3501, 3501, 3465, 3465, 3465, 3431, 3431, 3431, 3431, 3431, 3397, 3397, 3397, 3397, 3397, 3397, 3397, 3397, 3363, 3363, 3363, 3363, 3363, 3363, 3363, 3330, 3330, 3330, 3330, 3330, 3330, 3298, 3298, 3298, 3298, 3298, 3267, 3267, 3267, 3267, 3267, 3267, 3236, 3236, 3236, 3236, 3236, 3206, 3206, 3206, 3206, 3206, 3206, 3176, 3176, 3176, 3147, 3147, 3147, 3147, 3147, 3147, 3118, 3118, 3118, 3118, 3118, 3090, 3090, 3090, 3090, 3090, 3090, 3090, 3090, 3062, 3062, 3062, 3062, 3035, 3035, 3035, 3008, 3008, 3008, 3008, 3008, 3008, 3008, 3008, 2982, 2982, 2982, 2982, 2982, 2982, 2982, 2982, 2982, 2956, 2956, 2956, 2956, 2931, 2931, 2931, 2931, 2906, 2906, 2906, 2906, 2906, 2906, 2906, 2882, 2882, 2882, 2882, 2858, 2858, 2858, 2834, 2834, 2834, 2834, 2834, 2834, 2834, 2811, 2811, 2811, 2811, 2811, 2811, 2811, 2811, 2788, 2788, 2788, 2788, 2788, 2788, 2765, 2765, 2765, 2743, 2743, 2743, 2743, 2743, 2743, 2743, 2743, 2721, 2721, 2721, 2721, 2721, 2700, 2700, 2700, 2700, 2700, 2679, 2679, 2679, 2658, 2658, 2658, 2658, 2658, 2658, 2658, 2658, 2658, 2658, 2658, 2658, 2637, 2637, 2637, 2637, 2617, 2617, 2617, 2617, 2617, 2617, 2617, 2597, 2597, 2597, 2597, 2578, 2578, 2578, 2578, 2558, 2558, 2558, 2558, 2558, 2558, 2539, 2539, 2539, 2539, 2539, 2539, 2539, 2539, 2521, 2521, 2521, 2521, 2521, 2521, 2521, 2521, 2521, 2521, 2502, 2502, 2502, 2502, 2502, 2502, 2484, 2484, 2484, 2484, 2466, 2466, 2466, 2466, 2466, 2466, 2448, 2448, 2448, 2448, 2448, 2448, 2448, 2448, 2431, 2431, 2431, 2431, 2431, 2431, 2431, 2414, 2414, 2414, 2414, 2414, 2397, 2397, 2397, 2380, 2380, 2380, 2380, 2364, 2364, 2364, 2364, 2348, 2348, 2348, 2348, 2348, 2332, 2332, 2332, 2332, 2332, 2332, 2348, 2348, 2348, 2348, 2332, 2332, 2332, 2332, 2316, 2316, 2316, 2300, 2300, 2300, 2300, 2300, 2300, 2300, 2285, 2285, 2285, 2285, 2285, 2285, 2270, 2270, 2270, 2270, 2270, 2255, 2255, 2255, 2240, 2240, 2240, 2240, 2240, 2225,
       4578, 4578, 4578, 4578, 4641, 4641, 4641, 4578, 4578, 4578, 4578, 4578, 4578, 4641, 4641, 4641, 4578, 4578, 4578, 4641, 4641, 4641, 4641, 4641, 4641, 4641, 4641, 4641, 4641, 4641, 4641, 4641, 4641, 4641, 4641, 4641, 4641, 4641, 4704, 4704, 4704, 4704, 4704, 4704, 4704, 4704, 4704, 4641, 4641, 4641, 4641, 4641, 4704, 4704, 4704, 4704, 4704, 4704, 4704, 4704, 4704, 4704, 4704, 4704, 4704, 4704, 4704, 4704, 4704, 4704, 4704, 4704, 4641, 4704, 4704, 4704, 4704, 4641, 4641, 4641, 4641, 4641, 4641, 4641, 4641, 4641, 4578, 4578, 4578, 4578, 4578, 4578, 4578, 4518, 4518, 4518, 4459, 4459, 4459, 4459, 4459, 4459, 4459, 4459, 4459, 4459, 4402, 4402, 4402, 4402, 4402, 4346, 4346, 4346, 4346, 4346, 4346, 4291, 4291, 4291, 4291, 4291, 4238, 4238, 4238, 4238, 4238, 4186, 4186, 4186, 4186, 4186, 4136, 4136, 4136, 4136, 4086, 4086, 4086, 4086, 4086, 4086, 4038, 4038, 4038, 4038, 4038, 4038, 4038, 4038, 3991, 3991, 3991, 3991, 3991, 3991, 3991, 3991, 3945, 3945, 3945, 3945, 3945, 3945, 3945, 3900, 3900, 3900, 3856, 3856, 3856, 3856, 3856, 3813, 3813, 3813, 3813, 3813, 3771, 3771, 3771, 3771, 3771, 3771, 3771, 3730, 3730, 3730, 3730, 3730, 3730, 3730, 3690, 3690, 3690, 3690, 3690, 3650, 3650, 3650, 3650, 3650, 3650, 3650, 3612, 3612, 3612, 3612, 3574, 3574, 3574, 3574, 3574, 3537, 3537, 3537, 3537, 3537, 3537, 3537, 3501, 3501, 3501, 3501, 3501, 3501, 3501, 3501, 3501, 3501, 3465, 3465, 3465, 3431, 3431, 3431, 3431, 3397, 3397, 3397, 3397, 3397, 3397, 3397, 3397, 3397, 3363, 3363, 3363, 3363, 3363, 3363, 3363, 3330, 3330, 3330, 3330, 3330, 3330, 3298, 3298, 3298, 3298, 3298, 3267, 3267, 3267, 3267, 3236, 3236, 3236, 3236, 3236, 3236, 3236, 3206, 3206, 3206, 3206, 3206, 3206, 3176, 3176, 3147, 3147, 3147, 3147, 3147, 3147, 3147, 3118, 3118, 3118, 3118, 3090, 3090, 3090, 3090, 3090, 3090, 3090, 3090, 3062, 3062, 3062, 3062, 3062, 3035, 3035, 3035, 3035, 3008, 3008, 3008, 3008, 3008, 3008, 3008, 3008, 2982, 2982, 2982, 2982, 2982, 2982, 2982, 2982, 2982, 2956, 2956, 2956, 2931, 2931, 2931, 2931, 2906, 2906, 2906, 2906, 2906, 2906, 2906, 2882, 2882, 2882, 2882, 2858, 2858, 2858, 2834, 2834, 2834, 2834, 2834, 2834, 2834, 2811, 2811, 2811, 2811, 2811, 2811, 2811, 2811, 2788, 2788, 2788, 2788, 2788, 2788, 2765, 2765, 2765, 2743, 2743, 2743, 2743, 2743, 2743, 2743, 2721, 2721, 2721, 2721, 2721, 2721, 2700, 2700, 2700, 2700, 2700, 2679, 2679, 2679, 2658, 2658, 2658, 2658, 2658, 2658, 2658, 2658, 2658, 2658, 2658, 2658, 2637, 2637, 2637, 2617, 2617, 2617, 2617, 2617, 2617, 2617, 2597, 2597, 2597, 2597, 2597, 2578, 2578, 2578, 2578, 2558, 2558, 2558, 2558, 2558, 2558, 2558, 2539, 2539, 2539, 2539, 2539, 2539, 2539, 2539, 2539, 2521, 2521, 2521, 2521, 2521, 2521, 2521, 2521, 2502, 2502, 2502, 2502, 2502, 2502, 2502, 2484, 2484, 2484, 2466, 2466, 2466, 2466, 2466, 2466, 2448, 2448, 2448, 2448, 2448, 2448, 2431, 2431, 2431, 2431, 2431, 2431, 2431, 2431, 2431, 2414, 2414, 2414, 2414, 2414, 2397, 2397, 2397, 2397, 2380, 2380, 2380, 2380, 2364, 2364, 2364, 2364, 2364, 2364, 2348, 2348, 2348, 2348, 2348, 2348, 2348, 2348, 2348, 2348, 2348, 2348, 2348, 2332, 2332, 2332, 2316, 2316, 2316, 2300, 2300, 2300, 2300, 2300, 2300, 2300, 2300, 2285, 2285, 2285, 2285, 2285, 2270, 2270, 2270, 2270, 2255, 2255, 2255, 2255, 2240, 2240, 2240, 2240, 2240, 2225,
       4578, 4578, 4578, 4578, 4578, 4578, 4578, 4578, 4578, 4578, 4578, 4578, 4578, 4641, 4641, 4641, 4641, 4578, 4578, 4641, 4641, 4641, 4641, 4641, 4641, 4641, 4641, 4641, 4641, 4641, 4641, 4641, 4641, 4641, 4641, 4704, 4704, 4704, 4704, 4704, 4704, 4704, 4704, 4704, 4704, 4704, 4704, 4704, 4704, 4704, 4704, 4704, 4704, 4704, 4704, 4704, 4704, 4704, 4704, 4704, 4704, 4704, 4704, 4704, 4704, 4704, 4704, 4704, 4704, 4704, 4704, 4704, 4641, 4704, 4704, 4704, 4704, 4704, 4704, 4704, 4641, 4641, 4641, 4641, 4641, 4641, 4641, 4578, 4578, 4578, 4578, 4578, 4578, 4518, 4518, 4518, 4459, 4459, 4459, 4459, 4459, 4459, 4459, 4459, 4459, 4459, 4459, 4402, 4402, 4402, 4402, 4346, 4346, 4346, 4346, 4346, 4346, 4291, 4291, 4291, 4291, 4238, 4238, 4238, 4238, 4238, 4238, 4186, 4186, 4186, 4186, 4186, 4186, 4186, 4136, 4136, 4136, 4086, 4086, 4086, 4086, 4086, 4038, 4038, 4038, 4038, 4038, 3991, 3991, 3991, 3991, 3991, 3991, 3991, 3991, 3991, 3991, 3991, 3945, 3945, 3945, 3945, 3945, 3945, 3900, 3900, 3900, 3900, 3856, 3856, 3856, 3856, 3856, 3813, 3813, 3813, 3813, 3771, 3771, 3771, 3771, 3771, 3771, 3771, 3771, 3771, 3730, 3730, 3730, 3730, 3730, 3730, 3690, 3690, 3690, 3690, 3650, 3650, 3650, 3650, 3650, 3612, 3612, 3612, 3612, 3612, 3612, 3612, 3574, 3574, 3574, 3574, 3574, 3537, 3537, 3537, 3537, 3537, 3537, 3501, 3501, 3501, 3501, 3501, 3501, 3501, 3501, 3501, 3501, 3465, 3465, 3465, 3465, 3431, 3431, 3431, 3431, 3397, 3397, 3397, 3397, 3397, 3397, 3397, 3397, 3397, 3363, 3363, 3363, 3363, 3363, 3363, 3363, 3330, 3330, 3330, 3330, 3330, 3330, 3298, 3298, 3298, 3298, 3298, 3267, 3267, 3267, 3267, 3236, 3236, 3236, 3236, 3236, 3236, 3236, 3206, 3206, 3206, 3206, 3206, 3206, 3176, 3176, 3176, 3147, 3147, 3147, 3147, 3147, 3147, 3118, 3118, 3118, 3118, 3090, 3090, 3090, 3090, 3090, 3090, 3090, 3090, 3062, 3062, 3062, 3062, 3062, 3035, 3035, 3035, 3035, 3035, 3008, 3008, 3008, 3008, 3008, 3008, 3008, 2982, 2982, 2982, 2982, 2982, 2982, 2982, 2982, 2982, 2956, 2956, 2956, 2931, 2931, 2931, 2931, 2931, 2931, 2906, 2906, 2906, 2906, 2906, 2882, 2882, 2882, 2882, 2858, 2858, 2858, 2834, 2834, 2834, 2834, 2834, 2834, 2811, 2811, 2811, 2811, 2811, 2811, 2811, 2811, 2788, 2788, 2788, 2788, 2788, 2788, 2765, 2765, 2765, 2743, 2743, 2743, 2743, 2743, 2743, 2743, 2743, 2721, 2721, 2721, 2721, 2721, 2721, 2700, 2700, 2700, 2700, 2700, 2679, 2679, 2679, 2658, 2658, 2658, 2658, 2658, 2658, 2658, 2658, 2658, 2658, 2658, 2637, 2637, 2637, 2637, 2617, 2617, 2617, 2617, 2617, 2617, 2617, 2597, 2597, 2597, 2597, 2597, 2578, 2578, 2578, 2578, 2558, 2558, 2558, 2558, 2558, 2558, 2558, 2558, 2558, 2539, 2539, 2539, 2539, 2539, 2539, 2539, 2521, 2521, 2521, 2521, 2521, 2521, 2521, 2521, 2521, 2502, 2502, 2502, 2502, 2502, 2502, 2484, 2484, 2484, 2466, 2466, 2466, 2466, 2466, 2466, 2448, 2448, 2448, 2448, 2448, 2448, 2431, 2431, 2431, 2431, 2431, 2431, 2431, 2431, 2431, 2414, 2414, 2414, 2414, 2414, 2414, 2397, 2397, 2397, 2380, 2380, 2380, 2380, 2364, 2364, 2364, 2364, 2364, 2364, 2348, 2348, 2348, 2348, 2348, 2348, 2348, 2348, 2348, 2348, 2348, 2348, 2348, 2332, 2332, 2332, 2316, 2316, 2300, 2300, 2300, 2300, 2300, 2300, 2300, 2300, 2300, 2285, 2285, 2285, 2285, 2285, 2270, 2270, 2270, 2270, 2255, 2255, 2255, 2240, 2240, 2240, 2240, 2240, 2240, 2240,
       4578, 4578, 4578, 4578, 4578, 4578, 4578, 4578, 4578, 4578, 4578, 4578, 4578, 4641, 4641, 4578, 4641, 4641, 4641, 4641, 4641, 4641, 4641, 4641, 4641, 4641, 4641, 4641, 4641, 4641, 4704, 4704, 4641, 4641, 4704, 4704, 4704, 4704, 4704, 4704, 4704, 4704, 4770, 4770, 4704, 4704, 4704, 4704, 4704, 4704, 4704, 4704, 4704, 4704, 4704, 4770, 4770, 4770, 4770, 4770, 4770, 4770, 4770, 4704, 4704, 4704, 4704, 4704, 4704, 4704, 4704, 4704, 4704, 4704, 4704, 4704, 4704, 4704, 4704, 4704, 4641, 4641, 4641, 4641, 4641, 4641, 4641, 4578, 4578, 4578, 4578, 4578, 4578, 4518, 4518, 4518, 4518, 4459, 4459, 4459, 4459, 4459, 4459, 4459, 4459, 4459, 4459, 4402, 4402, 4402, 4402, 4346, 4346, 4346, 4346, 4346, 4346, 4291, 4291, 4291, 4291, 4291, 4238, 4238, 4238, 4238, 4238, 4238, 4186, 4186, 4186, 4186, 4186, 4186, 4136, 4136, 4136, 4086, 4086, 4086, 4086, 4086, 4038, 4038, 4038, 4038, 3991, 3991, 3991, 3991, 3991, 3991, 3991, 3991, 3991, 3991, 3991, 3991, 3945, 3945, 3945, 3945, 3945, 3945, 3900, 3900, 3900, 3900, 3856, 3856, 3856, 3856, 3856, 3813, 3813, 3813, 3813, 3771, 3771, 3771, 3771, 3771, 3771, 3730, 3730, 3730, 3730, 3730, 3730, 3730, 3730, 3690, 3690, 3690, 3690, 3690, 3650, 3650, 3650, 3650, 3650, 3650, 3650, 3650, 3612, 3612, 3612, 3574, 3574, 3574, 3574, 3574, 3574, 3574, 3574, 3537, 3537, 3537, 3537, 3501, 3501, 3501, 3501, 3501, 3501, 3501, 3501, 3501, 3501, 3501, 3465, 3465, 3465, 3431, 3431, 3431, 3431, 3397, 3397, 3397, 3397, 3397, 3397, 3397, 3397, 3397, 3363, 3363, 3363, 3363, 3363, 3363, 3363, 3330, 3330, 3330, 3330, 3330, 3330, 3298, 3298, 3298, 3298, 3298, 3267, 3267, 3267, 3267, 3236, 3236, 3236, 3236, 3236, 3236, 3236, 3206, 3206, 3206, 3206, 3206, 3206, 3176, 3176, 3176, 3147, 3147, 3147, 3147, 3147, 3147, 3118, 3118, 3118, 3118, 3090, 3090, 3090, 3090, 3090, 3090, 3090, 3090, 3090, 3062, 3062, 3062, 3062, 3062, 3035, 3035, 3035, 3035, 3008, 3008, 3008, 3008, 3008, 3008, 3008, 2982, 2982, 2982, 2982, 2982, 2982, 2982, 2982, 2982, 2956, 2956, 2956, 2956, 2931, 2931, 2931, 2931, 2931, 2906, 2906, 2906, 2906, 2906, 2882, 2882, 2882, 2882, 2858, 2858, 2858, 2834, 2834, 2834, 2834, 2834, 2834, 2811, 2811, 2811, 2811, 2811, 2811, 2811, 2811, 2788, 2788, 2788, 2788, 2788, 2765, 2765, 2765, 2765, 2743, 2743, 2743, 2743, 2743, 2743, 2743, 2743, 2721, 2721, 2721, 2721, 2721, 2721, 2700, 2700, 2700, 2700, 2700, 2679, 2679, 2679, 2679, 2658, 2658, 2658, 2658, 2658, 2658, 2658, 2658, 2658, 2658, 2637, 2637, 2637, 2637, 2637, 2637, 2617, 2617, 2617, 2617, 2617, 2617, 2597, 2597, 2597, 2597, 2578, 2578, 2578, 2578, 2558, 2558, 2558, 2558, 2558, 2558, 2558, 2558, 2558, 2558, 2558, 2539, 2539, 2539, 2539, 2539, 2521, 2521, 2521, 2521, 2521, 2521, 2521, 2521, 2521, 2502, 2502, 2502, 2502, 2502, 2502, 2484, 2484, 2484, 2484, 2484, 2484, 2466, 2466, 2466, 2466, 2466, 2448, 2448, 2448, 2448, 2431, 2431, 2431, 2431, 2431, 2431, 2431, 2431, 2431, 2414, 2414, 2414, 2414, 2414, 2414, 2397, 2397, 2397, 2380, 2380, 2380, 2380, 2364, 2364, 2364, 2364, 2364, 2364, 2364, 2348, 2348, 2348, 2348, 2348, 2348, 2348, 2348, 2348, 2348, 2348, 2332, 2332, 2332, 2332, 2316, 2316, 2316, 2300, 2300, 2300, 2300, 2300, 2300, 2300, 2300, 2285, 2285, 2285, 2285, 2285, 2270, 2270, 2270, 2270, 2255, 2255, 2255, 2240, 2240, 2240, 2240, 2240, 2240, 2240,
       4578, 4578, 4578, 4578, 4578, 4578, 4578, 4578, 4578, 4578, 4578, 4578, 4578, 4641, 4641, 4578, 4641, 4641, 4641, 4641, 4641, 4641, 4641, 4641, 4641, 4641, 4641, 4641, 4704, 4704, 4704, 4704, 4704, 4704, 4704, 4704, 4704, 4704, 4704, 4704, 4704, 4704, 4704, 4704, 4704, 4704, 4704, 4704, 4704, 4704, 4704, 4704, 4770, 4770, 4770, 4770, 4770, 4770, 4770, 4770, 4770, 4770, 4770, 4770, 4770, 4770, 4704, 4704, 4704, 4704, 4704, 4704, 4704, 4704, 4704, 4704, 4704, 4704, 4704, 4704, 4641, 4641, 4641, 4641, 4641, 4641, 4641, 4578, 4578, 4578, 4578, 4578, 4578, 4518, 4518, 4518, 4518, 4459, 4459, 4459, 4459, 4459, 4459, 4459, 4459, 4459, 4459, 4402, 4402, 4402, 4402, 4346, 4346, 4346, 4346, 4346, 4346, 4291, 4291, 4291, 4291, 4291, 4238, 4238, 4238, 4238, 4238, 4238, 4186, 4186, 4186, 4186, 4186, 4186, 4136, 4136, 4136, 4086, 4086, 4086, 4086, 4086, 4038, 4038, 4038, 4038, 3991, 3991, 3991, 3991, 3991, 3991, 3991, 3991, 3991, 3991, 3991, 3991, 3945, 3945, 3945, 3945, 3945, 3945, 3900, 3900, 3900, 3856, 3856, 3856, 3856, 3856, 3813, 3813, 3813, 3813, 3813, 3771, 3771, 3771, 3771, 3771, 3771, 3730, 3730, 3730, 3730, 3730, 3730, 3730, 3730, 3730, 3690, 3690, 3690, 3690, 3650, 3650, 3650, 3650, 3650, 3650, 3650, 3650, 3612, 3612, 3612, 3612, 3612, 3612, 3574, 3574, 3574, 3574, 3574, 3537, 3537, 3537, 3537, 3501, 3501, 3501, 3501, 3501, 3501, 3501, 3501, 3501, 3501, 3501, 3501, 3465, 3465, 3465, 3431, 3431, 3431, 3397, 3397, 3397, 3397, 3397, 3397, 3397, 3397, 3397, 3363, 3363, 3363, 3363, 3363, 3363, 3330, 3330, 3330, 3330, 3330, 3330, 3330, 3298, 3298, 3298, 3298, 3298, 3267, 3267, 3267, 3267, 3236, 3236, 3236, 3236, 3236, 3236, 3236, 3206, 3206, 3206, 3206, 3206, 3206, 3176, 3176, 3176, 3147, 3147, 3147, 3147, 3147, 3147, 3118, 3118, 3118, 3118, 3090, 3090, 3090, 3090, 3090, 3090, 3090, 3090, 3062, 3062, 3062, 3062, 3062, 3062, 3035, 3035, 3035, 3035, 3035, 3008, 3008, 3008, 3008, 3008, 2982, 2982, 2982, 2982, 2982, 2982, 2982, 2982, 2982, 2982, 2956, 2956, 2956, 2956, 2931, 2931, 2931, 2931, 2931, 2906, 2906, 2906, 2906, 2906, 2906, 2882, 2882, 2882, 2858, 2858, 2858, 2858, 2834, 2834, 2834, 2834, 2834, 2834, 2811, 2811, 2811, 2811, 2811, 2811, 2811, 2788, 2788, 2788, 2788, 2788, 2765, 2765, 2765, 2765, 2743, 2743, 2743, 2743, 2743, 2743, 2743, 2743, 2743, 2721, 2721, 2721, 2721, 2721, 2700, 2700, 2700, 2700, 2700, 2700, 2679, 2679, 2679, 2679, 2679, 2658, 2658, 2658, 2658, 2658, 2658, 2658, 2658, 2637, 2637, 2637, 2637, 2637, 2637, 2617, 2617, 2617, 2617, 2617, 2617, 2597, 2597, 2597, 2578, 2578, 2578, 2578, 2578, 2558, 2558, 2558, 2558, 2558, 2558, 2558, 2558, 2558, 2558, 2558, 2558, 2558, 2539, 2539, 2539, 2539, 2521, 2521, 2521, 2521, 2521, 2521, 2521, 2521, 2502, 2502, 2502, 2502, 2502, 2502, 2484, 2484, 2484, 2484, 2484, 2484, 2466, 2466, 2466, 2466, 2466, 2448, 2448, 2448, 2431, 2431, 2431, 2431, 2431, 2431, 2431, 2431, 2431, 2431, 2431, 2414, 2414, 2414, 2414, 2414, 2414, 2397, 2397, 2380, 2380, 2380, 2380, 2364, 2364, 2364, 2364, 2364, 2364, 2364, 2348, 2348, 2348, 2348, 2348, 2348, 2348, 2348, 2348, 2348, 2348, 2332, 2332, 2332, 2332, 2316, 2316, 2316, 2300, 2300, 2300, 2300, 2300, 2300, 2300, 2300, 2285, 2285, 2285, 2285, 2285, 2270, 2270, 2270, 2270, 2255, 2255, 2240, 2240, 2240, 2240, 2240, 2240, 2240, 2240,
       4578, 4578, 4578, 4578, 4578, 4578, 4578, 4578, 4578, 4578, 4578, 4578, 4578, 4641, 4641, 4578, 4641, 4641, 4641, 4641, 4641, 4641, 4641, 4641, 4641, 4641, 4641, 4641, 4704, 4704, 4704, 4704, 4704, 4704, 4704, 4704, 4704, 4704, 4704, 4704, 4704, 4704, 4704, 4704, 4704, 4704, 4704, 4704, 4704, 4770, 4770, 4770, 4770, 4770, 4770, 4770, 4770, 4770, 4770, 4770, 4770, 4770, 4770, 4770, 4770, 4770, 4770, 4770, 4770, 4770, 4770, 4704, 4704, 4704, 4704, 4704, 4704, 4704, 4704, 4704, 4641, 4641, 4641, 4641, 4641, 4578, 4578, 4578, 4578, 4578, 4578, 4578, 4578, 4518, 4518, 4518, 4518, 4459, 4459, 4459, 4459, 4459, 4459, 4459, 4459, 4459, 4459, 4402, 4402, 4402, 4402, 4346, 4346, 4346, 4346, 4346, 4346, 4291, 4291, 4291, 4291, 4291, 4238, 4238, 4238, 4238, 4238, 4186, 4186, 4186, 4186, 4186, 4186, 4136, 4136, 4136, 4136, 4086, 4086, 4086, 4086, 4086, 4086, 4038, 4038, 4038, 4038, 3991, 3991, 3991, 3991, 3991, 3991, 3991, 3991, 3991, 3991, 3991, 3945, 3945, 3945, 3945, 3945, 3900, 3900, 3900, 3900, 3856, 3856, 3856, 3813, 3813, 3813, 3813, 3813, 3813, 3813, 3771, 3771, 3771, 3771, 3771, 3771, 3771, 3730, 3730, 3730, 3730, 3730, 3730, 3730, 3690, 3690, 3690, 3690, 3690, 3650, 3650, 3650, 3650, 3650, 3650, 3650, 3650, 3650, 3612, 3612, 3612, 3612, 3612, 3574, 3574, 3574, 3574, 3574, 3537, 3537, 3537, 3537, 3537, 3501, 3501, 3501, 3501, 3501, 3501, 3501, 3501, 3501, 3501, 3501, 3465, 3465, 3431, 3431, 3431, 3431, 3397, 3397, 3397, 3397, 3397, 3397, 3397, 3397, 3397, 3363, 3363, 3363, 3363, 3363, 3363, 3363, 3330, 3330, 3330, 3330, 3330, 3330, 3298, 3298, 3298, 3298, 3298, 3267, 3267, 3267, 3267, 3267, 3267, 3236, 3236, 3236, 3236, 3236, 3206, 3206, 3206, 3206, 3206, 3176, 3176, 3176, 3176, 3147, 3147, 3147, 3147, 3147, 3118, 3118, 3118, 3118, 3090, 3090, 3090, 3090, 3090, 3090, 3090, 3090, 3090, 3062, 3090, 3090, 3062, 3062, 3062, 3035, 3035, 3035, 3035, 3035, 3008, 3008, 3008, 3008, 3008, 2982, 2982, 2982, 2982, 2982, 2982, 2982, 2982, 2956, 2956, 2956, 2956, 2956, 2956, 2931, 2931, 2931, 2931, 2931, 2906, 2906, 2906, 2906, 2906, 2906, 2882, 2882, 2882, 2858, 2858, 2858, 2858, 2834, 2834, 2834, 2834, 2834, 2834, 2834, 2811, 2811, 2811, 2811, 2811, 2811, 2788, 2788, 2788, 2788, 2788, 2765, 2765, 2765, 2765, 2765, 2743, 2743, 2743, 2743, 2743, 2743, 2743, 2743, 2721, 2721, 2721, 2721, 2721, 2700, 2700, 2700, 2700, 2700, 2700, 2679, 2679, 2679, 2679, 2679, 2658, 2658, 2658, 2658, 2658, 2658, 2658, 2658, 2637, 2637, 2637, 2637, 2637, 2637, 2617, 2617, 2617, 2617, 2617, 2597, 2597, 2597, 2578, 2578, 2578, 2578, 2578, 2578, 2578, 2578, 2578, 2578, 2578, 2558, 2558, 2558, 2558, 2558, 2558, 2558, 2558, 2558, 2539, 2539, 2539, 2539, 2539, 2521, 2521, 2521, 2521, 2521, 2521, 2502, 2502, 2502, 2502, 2502, 2502, 2484, 2484, 2484, 2484, 2484, 2484, 2466, 2466, 2466, 2466, 2466, 2448, 2448, 2448, 2448, 2431, 2431, 2431, 2431, 2431, 2431, 2431, 2431, 2431, 2431, 2431, 2414, 2414, 2414, 2414, 2414, 2397, 2397, 2380, 2380, 2380, 2380, 2364, 2364, 2364, 2364, 2364, 2364, 2364, 2348, 2348, 2348, 2348, 2348, 2348, 2348, 2348, 2348, 2348, 2348, 2332, 2332, 2332, 2332, 2316, 2316, 2316, 2300, 2300, 2300, 2300, 2300, 2300, 2300, 2285, 2285, 2285, 2285, 2285, 2285, 2270, 2270, 2270, 2255, 2255, 2240, 2240, 2240, 2240, 2240, 2240, 2240, 2240, 2240,
       4578, 4578, 4578, 4578, 4578, 4578, 4578, 4578, 4578, 4578, 4578, 4578, 4578, 4578, 4641, 4578, 4641, 4641, 4641, 4641, 4641, 4641, 4641, 4641, 4641, 4641, 4641, 4704, 4704, 4704, 4704, 4704, 4704, 4704, 4704, 4704, 4704, 4704, 4704, 4704, 4704, 4704, 4704, 4770, 4770, 4770, 4770, 4704, 4770, 4770, 4770, 4770, 4770, 4770, 4770, 4770, 4770, 4837, 4837, 4837, 4837, 4837, 4837, 4837, 4837, 4837, 4837, 4770, 4770, 4770, 4770, 4704, 4704, 4704, 4704, 4704, 4704, 4704, 4704, 4704, 4641, 4641, 4641, 4641, 4641, 4578, 4578, 4578, 4578, 4578, 4518, 4578, 4578, 4518, 4518, 4518, 4518, 4518, 4459, 4459, 4459, 4459, 4459, 4459, 4459, 4459, 4402, 4402, 4402, 4402, 4346, 4346, 4346, 4346, 4346, 4346, 4291, 4291, 4291, 4291, 4291, 4238, 4238, 4238, 4238, 4238, 4238, 4186, 4186, 4186, 4186, 4186, 4186, 4136, 4136, 4136, 4136, 4086, 4086, 4086, 4086, 4086, 4086, 4038, 4038, 4038, 4038, 3991, 3991, 3991, 3991, 3991, 3991, 3991, 3991, 3991, 3991, 3991, 3945, 3945, 3945, 3945, 3945, 3945, 3900, 3900, 3900, 3856, 3856, 3856, 3813, 3813, 3813, 3813, 3813, 3813, 3813, 3771, 3771, 3771, 3771, 3771, 3771, 3771, 3730, 3730, 3730, 3730, 3730, 3730, 3730, 3730, 3690, 3690, 3690, 3690, 3690, 3650, 3650, 3650, 3650, 3650, 3650, 3650, 3650, 3612, 3612, 3612, 3612, 3574, 3574, 3574, 3574, 3574, 3574, 3537, 3537, 3537, 3537, 3537, 3501, 3501, 3501, 3501, 3501, 3501, 3501, 3501, 3501, 3501, 3501, 3465, 3465, 3431, 3431, 3431, 3431, 3397, 3397, 3397, 3397, 3397, 3397, 3397, 3397, 3397, 3363, 3363, 3363, 3363, 3363, 3363, 3363, 3330, 3330, 3330, 3330, 3330, 3330, 3298, 3298, 3298, 3298, 3298, 3267, 3267, 3267, 3267, 3267, 3267, 3236, 3236, 3236, 3236, 3236, 3236, 3206, 3206, 3206, 3206, 3176, 3176, 3176, 3147, 3147, 3147, 3147, 3147, 3147, 3147, 3118, 3118, 3118, 3090, 3090, 3090, 3090, 3090, 3090, 3090, 3090, 3090, 3090, 3090, 3090, 3062, 3062, 3062, 3062, 3035, 3035, 3035, 3035, 3008, 3008, 3008, 3008, 3008, 2982, 2982, 2982, 2982, 2982, 2982, 2982, 2956, 2956, 2956, 2956, 2956, 2956, 2956, 2931, 2931, 2931, 2931, 2931, 2906, 2906, 2906, 2906, 2906, 2882, 2882, 2882, 2882, 2858, 2858, 2858, 2858, 2834, 2834, 2834, 2834, 2834, 2834, 2834, 2811, 2811, 2811, 2811, 2811, 2811, 2788, 2788, 2788, 2788, 2788, 2765, 2765, 2765, 2765, 2765, 2765, 2743, 2743, 2743, 2743, 2743, 2743, 2743, 2721, 2721, 2721, 2721, 2721, 2700, 2700, 2700, 2700, 2700, 2700, 2679, 2679, 2679, 2679, 2658, 2658, 2658, 2658, 2658, 2658, 2658, 2658, 2658, 2637, 2637, 2637, 2637, 2637, 2637, 2637, 2637, 2617, 2617, 2617, 2617, 2617, 2597, 2597, 2597, 2597, 2578, 2578, 2578, 2578, 2578, 2578, 2578, 2578, 2578, 2558, 2558, 2558, 2558, 2558, 2558, 2558, 2558, 2539, 2539, 2539, 2539, 2539, 2521, 2521, 2521, 2521, 2521, 2502, 2502, 2502, 2502, 2502, 2502, 2502, 2484, 2484, 2484, 2484, 2484, 2484, 2466, 2466, 2466, 2466, 2466, 2448, 2448, 2448, 2448, 2431, 2431, 2431, 2414, 2414, 2414, 2414, 2431, 2431, 2414, 2414, 2414, 2414, 2414, 2414, 2414, 2397, 2397, 2380, 2380, 2380, 2380, 2364, 2364, 2364, 2364, 2364, 2364, 2364, 2348, 2348, 2348, 2348, 2348, 2348, 2348, 2348, 2348, 2348, 2348, 2332, 2332, 2332, 2332, 2316, 2316, 2316, 2300, 2300, 2300, 2300, 2300, 2300, 2300, 2285, 2285, 2285, 2285, 2285, 2285, 2270, 2270, 2255, 2255, 2255, 2240, 2240, 2240, 2240, 2240, 2240, 2240, 2240, 2240,
       4578, 4578, 4578, 4578, 4578, 4578, 4578, 4578, 4578, 4578, 4578, 4578, 4578, 4641, 4641, 4641, 4641, 4641, 4641, 4641, 4641, 4641, 4641, 4641, 4641, 4641, 4641, 4704, 4704, 4704, 4704, 4704, 4704, 4704, 4704, 4704, 4704, 4704, 4704, 4770, 4770, 4770, 4770, 4770, 4770, 4770, 4770, 4770, 4770, 4770, 4770, 4770, 4770, 4770, 4770, 4837, 4837, 4837, 4837, 4837, 4837, 4837, 4837, 4837, 4837, 4837, 4837, 4837, 4770, 4770, 4770, 4770, 4704, 4704, 4704, 4704, 4704, 4641, 4704, 4704, 4641, 4641, 4641, 4641, 4641, 4578, 4578, 4578, 4578, 4578, 4518, 4578, 4518, 4518, 4518, 4518, 4518, 4518, 4459, 4459, 4459, 4459, 4459, 4459, 4459, 4459, 4402, 4402, 4402, 4402, 4346, 4346, 4346, 4346, 4346, 4346, 4291, 4291, 4291, 4291, 4238, 4238, 4238, 4238, 4238, 4238, 4186, 4186, 4186, 4186, 4186, 4186, 4186, 4136, 4136, 4136, 4136, 4136, 4086, 4086, 4086, 4086, 4086, 4038, 4038, 4038, 4038, 3991, 3991, 3991, 3991, 3991, 3991, 3991, 3991, 3991, 3991, 3991, 3945, 3945, 3945, 3945, 3945, 3945, 3900, 3900, 3900, 3856, 3856, 3856, 3856, 3856, 3813, 3813, 3813, 3813, 3813, 3771, 3771, 3771, 3771, 3771, 3771, 3771, 3730, 3730, 3730, 3730, 3730, 3730, 3730, 3730, 3690, 3690, 3690, 3690, 3690, 3650, 3650, 3650, 3650, 3650, 3650, 3650, 3650, 3612, 3612, 3612, 3612, 3574, 3574, 3574, 3574, 3574, 3537, 3537, 3537, 3537, 3537, 3501, 3501, 3501, 3501, 3501, 3501, 3501, 3501, 3501, 3501, 3501, 3501, 3465, 3465, 3431, 3431, 3431, 3431, 3397, 3397, 3397, 3397, 3397, 3397, 3397, 3397, 3363, 3363, 3363, 3363, 3363, 3363, 3363, 3363, 3330, 3330, 3330, 3330, 3330, 3298, 3298, 3298, 3298, 3298, 3298, 3267, 3267, 3267, 3267, 3267, 3267, 3267, 3236, 3236, 3236, 3236, 3236, 3206, 3206, 3206, 3206, 3176, 3176, 3176, 3176, 3176, 3147, 3147, 3147, 3147, 3147, 3118, 3118, 3118, 3118, 3090, 3090, 3090, 3090, 3090, 3090, 3090, 3090, 3090, 3090, 3090, 3062, 3062, 3062, 3062, 3035, 3035, 3035, 3035, 3008, 3008, 3008, 3008, 3008, 2982, 2982, 2982, 2982, 2982, 2982, 2956, 2956, 2956, 2956, 2956, 2956, 2956, 2956, 2931, 2931, 2931, 2931, 2931, 2906, 2906, 2906, 2906, 2906, 2882, 2882, 2882, 2882, 2858, 2858, 2858, 2858, 2834, 2834, 2834, 2834, 2834, 2834, 2834, 2811, 2811, 2811, 2811, 2811, 2811, 2788, 2788, 2788, 2788, 2788, 2765, 2765, 2765, 2765, 2743, 2743, 2743, 2743, 2743, 2743, 2743, 2743, 2743, 2721, 2721, 2721, 2721, 2721, 2700, 2700, 2700, 2700, 2700, 2700, 2679, 2679, 2679, 2679, 2658, 2658, 2658, 2658, 2658, 2658, 2658, 2658, 2658, 2637, 2637, 2637, 2637, 2637, 2637, 2637, 2637, 2617, 2617, 2617, 2617, 2617, 2597, 2597, 2597, 2597, 2597, 2578, 2578, 2578, 2578, 2578, 2578, 2578, 2578, 2558, 2558, 2558, 2558, 2558, 2558, 2558, 2558, 2558, 2539, 2539, 2539, 2539, 2521, 2521, 2521, 2502, 2502, 2502, 2502, 2502, 2502, 2502, 2502, 2502, 2484, 2484, 2484, 2466, 2484, 2484, 2466, 2466, 2466, 2466, 2466, 2448, 2448, 2448, 2448, 2431, 2431, 2431, 2414, 2414, 2414, 2414, 2414, 2414, 2414, 2414, 2414, 2414, 2414, 2414, 2414, 2397, 2380, 2380, 2380, 2380, 2380, 2364, 2364, 2364, 2364, 2364, 2364, 2364, 2348, 2348, 2348, 2348, 2348, 2348, 2348, 2348, 2348, 2332, 2332, 2332, 2332, 2332, 2316, 2316, 2316, 2316, 2300, 2300, 2300, 2300, 2300, 2300, 2300, 2285, 2285, 2285, 2285, 2285, 2285, 2270, 2270, 2270, 2255, 2255, 2240, 2240, 2240, 2240, 2240, 2240, 2240, 2240, 2240,
       4578, 4578, 4578, 4578, 4578, 4578, 4578, 4578, 4578, 4578, 4578, 4578, 4578, 4641, 4641, 4641, 4641, 4641, 4641, 4641, 4641, 4641, 4641, 4641, 4641, 4641, 4641, 4704, 4704, 4704, 4704, 4704, 4704, 4704, 4704, 4704, 4704, 4704, 4704, 4770, 4770, 4770, 4770, 4770, 4770, 4770, 4770, 4770, 4770, 4770, 4770, 4770, 4770, 4770, 4770, 4770, 4837, 4837, 4837, 4837, 4837, 4837, 4837, 4837, 4837, 4837, 4837, 4837, 4770, 4770, 4770, 4770, 4704, 4704, 4704, 4704, 4704, 4704, 4704, 4704, 4641, 4641, 4641, 4641, 4578, 4578, 4578, 4578, 4578, 4578, 4518, 4518, 4518, 4518, 4518, 4518, 4518, 4518, 4459, 4459, 4459, 4459, 4459, 4459, 4459, 4459, 4402, 4402, 4402, 4402, 4402, 4346, 4346, 4346, 4346, 4346, 4291, 4291, 4291, 4291, 4238, 4238, 4238, 4238, 4238, 4186, 4186, 4186, 4186, 4186, 4186, 4186, 4186, 4136, 4136, 4136, 4136, 4136, 4086, 4086, 4086, 4086, 4086, 4038, 4038, 4038, 3991, 3991, 3991, 3991, 3991, 3991, 3991, 3991, 3991, 3991, 3991, 3991, 3945, 3945, 3945, 3945, 3945, 3945, 3900, 3900, 3900, 3856, 3856, 3856, 3856, 3856, 3813, 3813, 3813, 3813, 3813, 3771, 3771, 3771, 3771, 3771, 3771, 3771, 3730, 3730, 3730, 3730, 3730, 3730, 3730, 3730, 3690, 3690, 3690, 3690, 3690, 3650, 3650, 3650, 3650, 3650, 3650, 3650, 3650, 3612, 3612, 3612, 3612, 3574, 3574, 3574, 3574, 3574, 3537, 3537, 3537, 3537, 3537, 3501, 3501, 3501, 3501, 3501, 3501, 3501, 3501, 3501, 3501, 3501, 3501, 3465, 3465, 3431, 3431, 3431, 3431, 3397, 3397, 3397, 3397, 3397, 3397, 3397, 3363, 3363, 3363, 3363, 3363, 3363, 3363, 3363, 3363, 3330, 3330, 3330, 3330, 3330, 3298, 3298, 3298, 3298, 3298, 3298, 3267, 3267, 3267, 3267, 3267, 3267, 3267, 3236, 3236, 3236, 3236, 3236, 3206, 3206, 3206, 3206, 3206, 3176, 3176, 3176, 3176, 3147, 3147, 3147, 3147, 3147, 3118, 3118, 3118, 3118, 3118, 3090, 3090, 3090, 3090, 3090, 3090, 3090, 3090, 3090, 3090, 3062, 3062, 3062, 3062, 3062, 3035, 3035, 3035, 3008, 3008, 3008, 3008, 3008, 2982, 2982, 2982, 2982, 2982, 2982, 2956, 2956, 2956, 2956, 2956, 2956, 2956, 2956, 2931, 2931, 2931, 2931, 2906, 2906, 2906, 2906, 2906, 2906, 2882, 2882, 2882, 2882, 2858, 2858, 2858, 2858, 2834, 2834, 2834, 2834, 2834, 2834, 2834, 2811, 2811, 2811, 2811, 2811, 2811, 2788, 2788, 2788, 2788, 2788, 2765, 2765, 2765, 2765, 2743, 2743, 2743, 2743, 2743, 2743, 2743, 2743, 2721, 2721, 2721, 2721, 2721, 2721, 2700, 2700, 2700, 2700, 2700, 2700, 2700, 2679, 2679, 2679, 2679, 2658, 2658, 2658, 2658, 2658, 2658, 2658, 2637, 2637, 2637, 2637, 2637, 2637, 2637, 2637, 2617, 2617, 2617, 2617, 2617, 2617, 2597, 2597, 2597, 2597, 2578, 2578, 2578, 2578, 2578, 2578, 2578, 2578, 2558, 2558, 2558, 2558, 2558, 2558, 2558, 2558, 2558, 2539, 2539, 2539, 2539, 2539, 2521, 2521, 2521, 2502, 2502, 2502, 2502, 2502, 2502, 2502, 2484, 2484, 2484, 2484, 2466, 2466, 2466, 2466, 2466, 2466, 2466, 2466, 2448, 2448, 2448, 2448, 2431, 2431, 2431, 2414, 2414, 2414, 2414, 2414, 2414, 2414, 2414, 2414, 2414, 2414, 2414, 2414, 2397, 2397, 2380, 2380, 2380, 2364, 2364, 2364, 2364, 2364, 2364, 2364, 2364, 2364, 2348, 2348, 2348, 2348, 2348, 2348, 2348, 2348, 2348, 2332, 2332, 2332, 2332, 2332, 2316, 2316, 2316, 2300, 2300, 2300, 2300, 2300, 2300, 2300, 2300, 2285, 2285, 2285, 2285, 2285, 2285, 2285, 2270, 2270, 2255, 2255, 2255, 2240, 2240, 2240, 2240, 2240, 2240, 2240, 2240,
       4578, 4578, 4578, 4578, 4578, 4578, 4578, 4578, 4578, 4578, 4578, 4578, 4578, 4641, 4641, 4641, 4641, 4641, 4641, 4641, 4641, 4641, 4641, 4641, 4641, 4641, 4641, 4641, 4641, 4641, 4704, 4704, 4704, 4704, 4704, 4704, 4704, 4704, 4704, 4704, 4770, 4770, 4770, 4770, 4770, 4770, 4770, 4770, 4770, 4770, 4770, 4770, 4770, 4770, 4770, 4770, 4837, 4837, 4837, 4837, 4837, 4837, 4837, 4837, 4837, 4837, 4837, 4837, 4837, 4770, 4770, 4770, 4704, 4704, 4704, 4704, 4704, 0, 0, 0, 0, 0, 0, 0, 0, 0, 0, 0, 4578, 4518, 4518, 4518, 4518, 4518, 4518, 4518, 4518, 4459, 4459, 4459, 4459, 4459, 4459, 4402, 4459, 4402, 4402, 4402, 4402, 4402, 4402, 4346, 4346, 4346, 4346, 4346, 4291, 4291, 4291, 4291, 4238, 4238, 4238, 4238, 4238, 4238, 4186, 4186, 4186, 4186, 4186, 4186, 4186, 4136, 4136, 4136, 4136, 4136, 4086, 4086, 4086, 4086, 4086, 4086, 4038, 4038, 3991, 3991, 3991, 3991, 3991, 3991, 3991, 3991, 3991, 3991, 3991, 3991, 3945, 3945, 3945, 3945, 3945, 3945, 3900, 3900, 3900, 3856, 3856, 3856, 3856, 3856, 3856, 3856, 3813, 3813, 3813, 3771, 3771, 3771, 3771, 3771, 3771, 3771, 3730, 3730, 3730, 3730, 3730, 3730, 3730, 3690, 3690, 3690, 3690, 3690, 3690, 3650, 3650, 3650, 3650, 3650, 3650, 3650, 3650, 3612, 3612, 3612, 3612, 3574, 3574, 3574, 3574, 3574, 3537, 3537, 3537, 3537, 3537, 3501, 3501, 3501, 3501, 3501, 3501, 3501, 3501, 3501, 3501, 3465, 3465, 3465, 3431, 3431, 3431, 3397, 3397, 3397, 3397, 3397, 3397, 3397, 3397, 3397, 3363, 3363, 3363, 3363, 3363, 3363, 3363, 3363, 3363, 3330, 3330, 3330, 3330, 3330, 3298, 3298, 3298, 3298, 3298, 3267, 3267, 3267, 3267, 3267, 3267, 3267, 3267, 3236, 3236, 3236, 3236, 3236, 3236, 3206, 3206, 3206, 3206, 3176, 3176, 3176, 3176, 3147, 3147, 3147, 3147, 3118, 3118, 3118, 3118, 3118, 3118, 3118, 3118, 3090, 3090, 3090, 3090, 3090, 3090, 3090, 3090, 3062, 3062, 3062, 3062, 3062, 3035, 3035, 3035, 3008, 3008, 3008, 3008, 3008, 3008, 2982, 2982, 2982, 2982, 2982, 2956, 2956, 2956, 2956, 2956, 2956, 2956, 2931, 2931, 2931, 2931, 2931, 2906, 2906, 2906, 2906, 2906, 2882, 2882, 2882, 2882, 2882, 2882, 2858, 2858, 2858, 2834, 2834, 2834, 2834, 2834, 2834, 2834, 2811, 2811, 2811, 2811, 2811, 2811, 2788, 2788, 2788, 2788, 2788, 2765, 2765, 2765, 2765, 2743, 2743, 2743, 2743, 2743, 2743, 2743, 2743, 2743, 2743, 2743, 2721, 2721, 2721, 2700, 2721, 2700, 2700, 2700, 2700, 2700, 2679, 2679, 2679, 2679, 2658, 2658, 2658, 2658, 2658, 2658, 2637, 2637, 2637, 2637, 2637, 2637, 2637, 2637, 2637, 2617, 2617, 2617, 2617, 2617, 2617, 2597, 2597, 2597, 2597, 2578, 2578, 2578, 2578, 2578, 2578, 2578, 2578, 2578, 2558, 2558, 2558, 2558, 2558, 2558, 2558, 2558, 2539, 2539, 2539, 2539, 2521, 2521, 2521, 2502, 2502, 2502, 2502, 2502, 2502, 2502, 2502, 2484, 2484, 2484, 2484, 2466, 2466, 2466, 2466, 2466, 2466, 2466, 2466, 2448, 2448, 2448, 2448, 2431, 2431, 2431, 2414, 2414, 2414, 2414, 2414, 2414, 2414, 2414, 2414, 2414, 2414, 2414, 2414, 2414, 2397, 2397, 2380, 2380, 2380, 2364, 2364, 2364, 2364, 2364, 2364, 2364, 2364, 2348, 2348, 2348, 2348, 2348, 2348, 2348, 2348, 2348, 2332, 2332, 2316, 2316, 2316, 2316, 2300, 2300, 2300, 2300, 2300, 2300, 2300, 2300, 2300, 2300, 2300, 2285, 2285, 2285, 2285, 2285, 2285, 2270, 2270, 2270, 2255, 2255, 2240, 2240, 2240, 2240, 2240, 2240, 2240, 2240,
       4578, 4578, 4578, 4578, 4578, 4578, 4578, 4578, 4578, 4578, 4578, 4578, 4578, 4641, 4641, 4641, 4641, 4641, 4641, 4641, 4641, 4641, 4641, 4641, 4641, 4641, 4641, 4641, 4641, 4641, 4704, 4704, 4641, 4704, 4704, 4704, 4704, 4704, 4704, 4704, 4770, 4770, 4770, 4770, 4770, 4770, 4770, 4770, 4770, 4770, 4770, 4770, 4770, 4770, 4770, 4770, 4837, 4837, 4837, 4837, 4837, 4837, 4837, 4837, 4837, 4837, 4837, 4837, 4837, 4770, 4770, 4770, 4704, 4704, 4704, 4704, 4704, 0, 0, 0, 0, 0, 0, 0, 0, 0, 0, 0, 0, 4518, 4459, 4518, 4518, 4459, 4518, 4518, 4459, 4459, 4459, 4459, 4459, 4459, 4402, 4402, 4402, 4402, 4402, 4402, 4402, 4402, 4346, 4346, 4346, 4346, 4346, 4346, 4291, 4291, 4291, 4291, 4238, 4238, 4238, 4238, 4238, 4238, 4186, 4186, 4186, 4186, 4186, 4186, 4186, 4136, 4136, 4136, 4136, 4136, 4136, 4136, 4136, 4086, 4086, 4086, 4038, 4038, 4038, 3991, 3991, 3991, 3991, 3991, 3991, 3991, 3991, 3991, 3991, 3991, 3945, 3945, 3945, 3945, 3945, 3945, 3900, 3900, 3900, 3900, 3900, 3856, 3856, 3856, 3856, 3856, 3813, 3813, 3813, 3813, 3771, 3771, 3771, 3771, 3771, 3771, 3771, 3730, 3730, 3730, 3730, 3730, 3730, 3690, 3690, 3690, 3690, 3690, 3650, 3650, 3650, 3650, 3650, 3650, 3650, 3650, 3650, 3612, 3612, 3612, 3612, 3612, 3612, 3574, 3574, 3574, 3537, 3537, 3537, 3537, 3501, 3501, 3501, 3501, 3501, 3501, 3501, 3501, 3501, 3501, 3501, 3465, 3465, 3465, 3431, 3431, 3431, 3397, 3397, 3397, 3397, 3397, 3397, 3397, 3397, 3397, 3397, 3363, 3363, 3363, 3363, 3363, 3363, 3363, 3330, 3330, 3330, 3330, 3330, 3330, 3298, 3298, 3298, 3298, 3298, 3267, 3267, 3267, 3267, 3267, 3267, 3236, 3236, 3236, 3236, 3236, 3236, 3236, 3236, 3206, 3206, 3206, 3206, 3176, 3176, 3176, 3176, 3147, 3147, 3147, 3147, 3118, 3118, 3118, 3118, 3118, 3118, 3118, 3118, 3118, 3090, 3090, 3090, 3090, 3090, 3090, 3062, 3062, 3062, 3062, 3062, 3035, 3035, 3035, 3035, 3035, 3008, 3008, 3008, 3008, 3008, 3008, 2982, 2982, 2982, 2982, 2956, 2956, 2956, 2956, 2956, 2956, 2956, 2931, 2931, 2931, 2931, 2931, 2906, 2906, 2906, 2906, 2906, 2882, 2882, 2882, 2882, 2882, 2858, 2858, 2858, 2858, 2834, 2834, 2834, 2834, 2834, 2834, 2834, 2811, 2811, 2811, 2811, 2811, 2811, 2788, 2788, 2788, 2788, 2788, 2765, 2765, 2765, 2765, 2765, 2743, 2743, 2743, 2743, 2743, 2743, 2743, 2743, 2743, 2743, 2721, 2721, 2721, 2721, 2721, 2700, 2700, 2700, 2700, 2700, 2679, 2679, 2679, 2679, 2658, 2658, 2658, 2658, 2658, 2658, 2637, 2637, 2637, 2637, 2637, 2637, 2637, 2637, 2637, 2637, 2617, 2617, 2617, 2617, 2597, 2597, 2597, 2597, 2597, 2578, 2578, 2578, 2578, 2578, 2578, 2578, 2578, 2578, 2558, 2558, 2558, 2558, 2558, 2558, 2558, 2558, 2539, 2539, 2539, 2539, 2539, 2521, 2502, 2502, 2502, 2502, 2502, 2502, 2502, 2502, 2502, 2484, 2484, 2484, 2484, 2466, 2466, 2466, 2466, 2466, 2466, 2448, 2448, 2448, 2448, 2448, 2448, 2448, 2431, 2431, 2414, 2414, 2414, 2414, 2414, 2414, 2414, 2414, 2414, 2414, 2414, 2414, 2414, 2414, 2397, 2397, 2380, 2380, 2380, 2364, 2364, 2364, 2364, 2364, 2364, 2364, 2364, 2348, 2348, 2348, 2348, 2348, 2348, 2348, 2348, 2332, 2332, 2332, 2332, 2316, 2316, 2316, 2300, 2300, 2300, 2300, 2300, 2300, 2300, 2300, 2300, 2300, 2300, 2285, 2285, 2285, 2285, 2285, 2270, 2270, 2270, 2270, 2255, 2255, 2255, 2240, 2240, 2240, 2240, 2240, 2240, 2240,
       4578, 4578, 4578, 4578, 4578, 4578, 4578, 4578, 4578, 4578, 4578, 4641, 4641, 4641, 4641, 4641, 4641, 4641, 4641, 4641, 4641, 4641, 4641, 4641, 4641, 4641, 4641, 4641, 4641, 4641, 4641, 4641, 4641, 4641, 4704, 4704, 4704, 4704, 4704, 4770, 4770, 4770, 4770, 4770, 4770, 4770, 4770, 4770, 4770, 4770, 4770, 4770, 4770, 4770, 4770, 4770, 4837, 4837, 4837, 4837, 4837, 4837, 4837, 4837, 4837, 4837, 4837, 4837, 4837, 4770, 4770, 4770, 4704, 4704, 4704, 4704, 4770, 4837, 0, 0, 0, 0, 0, 0, 0, 0, 0, 0, 0, 0, 0, 0, 0, 0, 0, 4459, 4459, 4459, 4459, 4459, 4459, 4402, 4402, 4402, 4402, 4402, 4402, 4402, 4402, 4346, 4346, 4346, 4346, 4346, 4346, 4346, 4291, 4291, 4291, 4291, 4238, 4238, 4238, 4238, 4238, 4238, 4238, 4186, 4186, 4186, 4186, 4186, 4186, 4186, 4136, 4136, 4136, 4136, 4136, 4136, 4136, 4136, 4086, 4086, 4038, 4038, 4038, 4038, 4038, 3991, 3991, 3991, 3991, 3991, 3991, 3991, 3991, 3945, 3945, 3945, 3945, 3945, 3945, 3900, 3900, 3900, 3900, 3900, 3900, 3900, 3856, 3856, 3856, 3856, 3813, 3813, 3813, 3813, 3813, 3771, 3771, 3771, 3771, 3771, 3771, 3730, 3730, 3730, 3730, 3730, 3730, 3690, 3690, 3690, 3690, 3690, 3690, 3650, 3650, 3650, 3650, 3650, 3650, 3650, 3650, 3612, 3612, 3612, 3612, 3612, 3612, 3574, 3574, 3574, 3537, 3537, 3537, 3537, 3501, 3501, 3501, 3501, 3501, 3501, 3501, 3501, 3501, 3501, 3501, 3465, 3465, 3465, 3431, 3431, 3431, 3397, 3397, 3397, 3397, 3397, 3397, 3397, 3397, 3397, 3397, 3363, 3363, 3363, 3363, 3363, 3363, 3363, 3330, 3330, 3330, 3330, 3330, 3330, 3298, 3298, 3298, 3298, 3298, 3267, 3267, 3267, 3267, 3267, 3267, 3267, 3236, 3236, 3236, 3236, 3236, 3236, 3206, 3206, 3206, 3206, 3206, 3176, 3176, 3176, 3176, 3147, 3147, 3147, 3147, 3118, 3118, 3118, 3118, 3118, 3118, 3118, 3118, 3118, 3118, 3090, 3090, 3090, 3090, 3090, 3062, 3062, 3062, 3062, 3062, 3035, 3035, 3035, 3035, 3008, 3008, 3008, 3008, 3008, 3008, 3008, 2982, 2982, 2982, 2982, 2956, 2956, 2956, 2956, 2956, 2956, 2931, 2931, 2931, 2931, 2931, 2906, 2906, 2906, 2906, 2882, 2882, 2882, 2882, 2882, 2882, 2882, 2858, 2858, 2858, 2858, 2858, 2834, 2834, 2834, 2834, 2834, 2834, 2811, 2811, 2811, 2811, 2811, 2811, 2788, 2788, 2788, 2788, 2788, 2765, 2765, 2765, 2765, 2765, 2743, 2743, 2743, 2743, 2743, 2743, 2743, 2743, 2743, 2743, 2721, 2721, 2721, 2721, 2721, 2700, 2700, 2700, 2700, 2700, 2679, 2679, 2679, 2679, 2679, 2658, 2658, 2658, 2658, 2658, 2637, 2637, 2637, 2637, 2637, 2637, 2637, 2637, 2637, 2637, 2637, 2617, 2617, 2617, 2597, 2597, 2597, 2597, 2597, 2578, 2578, 2578, 2578, 2578, 2578, 2578, 2578, 2578, 2558, 2558, 2558, 2558, 2558, 2558, 2558, 2558, 2539, 2539, 2539, 2539, 2521, 2521, 2502, 2502, 2502, 2502, 2502, 2502, 2502, 2502, 2484, 2484, 2484, 2484, 2484, 2466, 2448, 2448, 2448, 2466, 2448, 2448, 2448, 2448, 2448, 2448, 2448, 2431, 2431, 2431, 2414, 2414, 2414, 2414, 2414, 2414, 2414, 2414, 2414, 2414, 2414, 2414, 2397, 2397, 2397, 2380, 2380, 2380, 2380, 2380, 2364, 2364, 2364, 2364, 2364, 2364, 2364, 2348, 2348, 2348, 2348, 2348, 2348, 2348, 2348, 2332, 2332, 2332, 2316, 2316, 2316, 2316, 2300, 2300, 2300, 2300, 2300, 2300, 2300, 2300, 2300, 2300, 2300, 2300, 2300, 2285, 2285, 2285, 2285, 2270, 2270, 2270, 2255, 2255, 2255, 2255, 2255, 2240, 2255, 2240, 2240, 2240 ]
