%YAML 1.0
---
depth: !!opencv-matrix
   rows: 32
   cols: 544
   dt: w
   data: [ 4578, 4518, 4518, 4578, 4578, 4578, 4578, 4578, 4578, 4578, 4578, 4641, 4641, 4641, 4641, 4641, 4641, 4641, 4641, 4641, 4641, 4641, 4704, 4704, 4704, 4704, 4704, 4704, 4704, 4704, 4704, 4704, 4704, 4704, 4704, 4641, 4641, 4641, 4518, 4346, 4186, 4136, 4086, 4086, 4086, 4038, 4038, 3991, 3945, 3900, 3900, 3856, 3856, 3856, 3856, 3856, 3856, 3856, 3856, 3856, 3900, 3900, 3900, 3900, 3900, 3900, 3900, 3900, 3945, 3945, 3945, 3945, 3945, 3945, 3945, 3945, 3991, 3991, 3991, 3991, 3991, 3991, 3991, 3991, 3991, 3991, 3991, 3991, 4038, 4038, 4038, 4038, 4038, 4038, 4038, 4038, 4038, 4038, 4038, 4038, 4038, 4038, 4038, 4038, 4038, 4038, 4038, 4038, 4038, 4038, 4038, 4038, 4038, 4038, 4038, 4038, 4038, 3991, 3991, 3991, 3991, 3991, 3991, 3991, 3991, 3991, 3991, 3991, 3991, 3945, 3945, 3900, 3900, 3900, 3856, 3856, 3856, 3856, 3856, 3856, 3813, 3813, 3813, 3813, 3813, 3813, 3813, 3813, 3813, 3813, 3813, 3771, 3771, 3771, 3771, 3730, 3730, 3730, 3730, 3730, 3690, 3690, 3690, 3690, 3690, 3690, 3690, 3650, 3650, 3650, 3650, 3650, 3650, 3650, 3612, 3612, 3612, 3574, 3574, 3574, 3574, 0, 0, 0, 0, 0, 0, 0, 0, 0, 0, 0, 0, 0, 0, 0, 0, 0, 0, 0, 0, 0, 0, 0, 0, 0, 0, 0, 0, 0, 0, 0, 0, 0, 0, 0, 0, 0, 0, 0, 0, 0, 0, 0, 0, 0, 0, 0, 0, 0, 0, 0, 0, 0, 0, 0, 0, 0, 0, 0, 0, 0, 0, 0, 0, 0, 0, 0, 0, 0, 0, 0, 0, 0, 0, 0, 0, 3147, 3147, 3118, 3118, 3118, 3118, 3118, 3118, 3090, 3090, 3090, 3090, 3062, 3062, 3062, 3062, 3062, 3035, 3035, 3035, 3035, 3008, 3008, 3008, 3008, 3008, 2982, 2982, 2982, 2982, 2982, 2956, 2956, 2931, 2931, 2931, 2931, 2931, 2931, 2931, 2931, 2931, 2931, 2931, 2931, 2906, 2906, 2906, 2906, 2906, 2906, 2906, 2882, 2882, 2882, 2882, 2882, 2858, 2858, 2858, 2858, 2834, 2834, 2834, 2834, 2834, 2811, 2811, 2811, 2811, 2811, 2811, 2811, 2811, 2788, 2788, 2788, 2788, 2788, 2788, 2765, 2765, 2743, 2743, 2743, 2743, 2743, 2721, 2721, 2721, 2721, 2721, 2721, 2721, 2721, 2721, 2700, 2700, 2700, 2700, 2700, 2700, 2679, 2679, 2679, 2679, 2679, 2679, 2658, 2658, 2658, 2658, 2658, 2658, 2658, 2637, 2637, 2637, 2637, 2637, 2637, 2617, 2617, 2617, 2597, 2597, 2578, 2578, 2578, 2578, 2558, 2558, 2558, 2558, 2558, 2558, 2558, 2558, 2539, 2539, 2539, 2539, 2539, 2539, 2539, 2521, 2521, 2521, 2521, 2521, 2521, 2521, 2502, 2502, 2502, 2502, 2502, 2502, 2502, 2484, 2484, 2484, 2484, 2484, 2484, 2466, 2466, 2466, 2466, 2448, 2448, 2448, 2448, 2431, 2431, 2431, 2431, 2414, 2414, 2414, 2414, 0, 0, 0, 0, 2115, 2115, 2115, 2115, 2142, 2183, 0, 0, 0, 0, 0, 0, 0, 0, 0, 0, 0, 0, 0, 0, 0, 0, 0, 0, 0, 0, 0, 0, 0, 0, 0, 0, 0, 0, 0, 0, 0, 0, 0, 0, 0, 0, 0, 0, 0, 0, 0, 0, 0, 0, 0, 0, 0, 0, 0, 0, 0, 0, 0, 0, 0, 0, 1981, 1981, 1981, 1969, 1981, 1969, 1969, 1969, 1969, 1958, 1958, 1969, 1969, 1958, 1947, 1936, 1936, 0, 0, 0, 0, 0, 0, 0, 0, 0, 0, 0, 0, 0, 1925, 0, 0, 0, 0, 0, 0, 0, 0, 0,
       4578, 4518, 4578, 4578, 4578, 4578, 4578, 4578, 4578, 4578, 4578, 4578, 4641, 4641, 4641, 4641, 4641, 4641, 4641, 4641, 4641, 4641, 4641, 4704, 4704, 4704, 4704, 4704, 4641, 4641, 4641, 4704, 4704, 4704, 4704, 4641, 4641, 4518, 4346, 4186, 4086, 4086, 4086, 4086, 4086, 4038, 4038, 3991, 3945, 3945, 3900, 3856, 3856, 3856, 3856, 3856, 3856, 3856, 3856, 3856, 3900, 3900, 3900, 3900, 3900, 3900, 3900, 3900, 3945, 3945, 3945, 3945, 3945, 3945, 3945, 3991, 3991, 3991, 3991, 3991, 3991, 3991, 3991, 3991, 3991, 3991, 3991, 3991, 4038, 4038, 4038, 4038, 4038, 4038, 4038, 4038, 4038, 4038, 4038, 4038, 4038, 4038, 4038, 4038, 4038, 4038, 4038, 4038, 4038, 4038, 4038, 4038, 4038, 4038, 4038, 3991, 3991, 3991, 3991, 3991, 3991, 3991, 3991, 3991, 3991, 3991, 3991, 3991, 3945, 3945, 3945, 3900, 3900, 3900, 3856, 3856, 3856, 3856, 3856, 3856, 3813, 3813, 3813, 3813, 3813, 3813, 3813, 3813, 3813, 3813, 3813, 3771, 3771, 3771, 3771, 3771, 3730, 3730, 3730, 3730, 3690, 3690, 3690, 3690, 3690, 3690, 3690, 3650, 3650, 3650, 3650, 3650, 3650, 3612, 3612, 3612, 3612, 3465, 3397, 3537, 3431, 0, 0, 0, 0, 0, 0, 0, 0, 0, 0, 0, 0, 0, 0, 0, 0, 0, 0, 0, 0, 0, 0, 0, 0, 0, 0, 0, 0, 0, 0, 0, 0, 0, 0, 0, 0, 0, 0, 0, 0, 0, 0, 0, 0, 0, 0, 0, 0, 0, 0, 0, 0, 0, 0, 0, 0, 0, 0, 0, 0, 0, 0, 0, 0, 0, 0, 0, 0, 0, 0, 0, 0, 0, 0, 0, 0, 3176, 3147, 3118, 3118, 3118, 3118, 3118, 3118, 3090, 3090, 3090, 3090, 3062, 3062, 3062, 3062, 3062, 3035, 3035, 3035, 3035, 3008, 3008, 3008, 3008, 3008, 3008, 2982, 2982, 2982, 2982, 2956, 2956, 2931, 2931, 2931, 2931, 2931, 2931, 2931, 2931, 2931, 2931, 2931, 2931, 2906, 2906, 2906, 2906, 2906, 2906, 2906, 2882, 2882, 2882, 2882, 2882, 2858, 2858, 2858, 2834, 2834, 2834, 2834, 2834, 2834, 2811, 2811, 2811, 2811, 2811, 2811, 2811, 2811, 2788, 2788, 2788, 2788, 2788, 2765, 2765, 2743, 2743, 2743, 2743, 2743, 2743, 2721, 2721, 2721, 2721, 2721, 2721, 2721, 2721, 2721, 2721, 2700, 2700, 2700, 2700, 2700, 2679, 2679, 2679, 2679, 2679, 2658, 2658, 2658, 2658, 2658, 2658, 2658, 2637, 2637, 2637, 2637, 2637, 2637, 2637, 2617, 2617, 2617, 2597, 2597, 2578, 2578, 2578, 2578, 2558, 2558, 2558, 2558, 2558, 2558, 2558, 2558, 2539, 2539, 2539, 2539, 2539, 2539, 2539, 2521, 2521, 2521, 2521, 2521, 2521, 2521, 2502, 2502, 2502, 2502, 2502, 2502, 2502, 2484, 2484, 2484, 2484, 2484, 2484, 2466, 2466, 2466, 2466, 2466, 2448, 2448, 2448, 2431, 2431, 2431, 2431, 2414, 2414, 2431, 2414, 2431, 0, 0, 0, 2115, 2115, 2115, 2115, 2183, 0, 0, 0, 0, 0, 0, 0, 0, 0, 0, 0, 0, 0, 0, 0, 0, 0, 0, 0, 0, 0, 0, 0, 0, 0, 0, 0, 0, 0, 0, 0, 0, 0, 0, 0, 0, 0, 0, 0, 0, 0, 0, 0, 0, 0, 0, 0, 0, 0, 0, 0, 0, 0, 0, 0, 0, 0, 0, 1981, 1981, 1981, 1981, 1981, 1981, 1981, 1981, 1969, 1969, 1969, 1969, 1969, 1958, 1947, 1947, 0, 0, 0, 0, 0, 0, 0, 0, 0, 0, 0, 0, 0, 1925, 0, 0, 0, 0, 0, 0, 0, 0, 0,
       4578, 4578, 4578, 4578, 4578, 4578, 4578, 4578, 4578, 4578, 4578, 4578, 4578, 4578, 4641, 4641, 4641, 4641, 4641, 4641, 4641, 4641, 4641, 4641, 4641, 4641, 4641, 4641, 4641, 4641, 4641, 4641, 4641, 4641, 4641, 0, 0, 4402, 4238, 4136, 4086, 4086, 4086, 4086, 4086, 4038, 4038, 3991, 3991, 3945, 3900, 3900, 3856, 3856, 3856, 3856, 3856, 3856, 3856, 3900, 3900, 3900, 3900, 3900, 3900, 3900, 3900, 3900, 3945, 3945, 3945, 3945, 3945, 3945, 3945, 3991, 3991, 3991, 3991, 3991, 3991, 3991, 3991, 3991, 3991, 3991, 3991, 3991, 4038, 4038, 4038, 4038, 4038, 4038, 4038, 4038, 4038, 4038, 4038, 4038, 4038, 4038, 4038, 4038, 4038, 4038, 4038, 4038, 4038, 4038, 4038, 4038, 4038, 4038, 4038, 3991, 3991, 3991, 3991, 3991, 3991, 3991, 3991, 3991, 3991, 3991, 3991, 3945, 3945, 3945, 3945, 3900, 3900, 3900, 3856, 3856, 3856, 3856, 3856, 3856, 3813, 3813, 3813, 3813, 3813, 3813, 3813, 3813, 3813, 3813, 3813, 3771, 3771, 3771, 3771, 3771, 3730, 3730, 3730, 3730, 3730, 3690, 3690, 3690, 3690, 3690, 3690, 3650, 0, 3537, 3650, 3650, 3650, 3612, 3612, 3465, 0, 0, 0, 0, 0, 0, 0, 0, 0, 0, 0, 0, 0, 0, 0, 0, 0, 0, 0, 0, 0, 0, 0, 0, 0, 0, 0, 0, 0, 0, 0, 0, 0, 0, 0, 0, 0, 0, 0, 0, 0, 0, 0, 0, 0, 0, 0, 0, 0, 0, 0, 0, 0, 0, 0, 0, 0, 0, 0, 0, 0, 0, 0, 0, 0, 0, 0, 0, 0, 0, 0, 0, 0, 0, 0, 0, 0, 0, 0, 0, 0, 3176, 3147, 3147, 3118, 3118, 3118, 3118, 3118, 3090, 3090, 3090, 3090, 3062, 3062, 3062, 3062, 3062, 3035, 3035, 3035, 3035, 3008, 3008, 3008, 3008, 3008, 3008, 2982, 2982, 2982, 2982, 2982, 2956, 2956, 2956, 2931, 2931, 2931, 2931, 2931, 2931, 2931, 2931, 2931, 2931, 2906, 2906, 2906, 2906, 2906, 2906, 2906, 2906, 2882, 2882, 2882, 2882, 2858, 2858, 2858, 2834, 2834, 2834, 2834, 2834, 2834, 2811, 2811, 2811, 2811, 2811, 2811, 2811, 2788, 2788, 2788, 2788, 2788, 2788, 2765, 2765, 2743, 2743, 2743, 2743, 2743, 2721, 2721, 2721, 2721, 2721, 2721, 2721, 2721, 2721, 2721, 2721, 2700, 2700, 2700, 2700, 2679, 2679, 2679, 2679, 2679, 2679, 2679, 2658, 2658, 2658, 2658, 2658, 2658, 2637, 2637, 2637, 2637, 2637, 2637, 2637, 2617, 2617, 2597, 2597, 2597, 2578, 2578, 2578, 2578, 2578, 2578, 2558, 2558, 2558, 2558, 2558, 2558, 2539, 2539, 2539, 2539, 2539, 2539, 2539, 2521, 2521, 2521, 2521, 2521, 2521, 2521, 2502, 2502, 2502, 2502, 2502, 2502, 2484, 2484, 2484, 2484, 2484, 2484, 2466, 2466, 2466, 2466, 2466, 2448, 2448, 2448, 2431, 2431, 2431, 2431, 2431, 2414, 2431, 2431, 2431, 2431, 0, 0, 0, 2115, 2115, 2115, 2115, 2183, 0, 0, 0, 0, 0, 0, 0, 0, 0, 0, 0, 0, 0, 0, 0, 0, 0, 0, 0, 0, 0, 0, 0, 0, 0, 0, 0, 0, 0, 0, 0, 0, 0, 0, 0, 0, 0, 0, 0, 0, 0, 0, 0, 0, 0, 0, 0, 0, 0, 0, 0, 0, 0, 0, 0, 0, 0, 0, 1981, 1981, 1969, 1981, 1981, 1981, 1981, 1969, 1969, 0, 0, 1969, 1969, 1958, 1958, 1947, 1947, 0, 0, 0, 0, 0, 0, 0, 0, 0, 0, 0, 0, 1925, 1958, 1947, 1925, 1925, 0, 0, 0, 0, 0,
       4578, 4518, 4518, 4518, 4578, 4578, 4578, 4578, 4578, 4578, 4578, 4578, 4578, 4578, 4578, 4641, 4641, 4641, 4641, 4641, 4641, 4641, 4641, 4641, 4641, 4641, 4641, 4641, 4641, 4641, 4641, 4641, 4641, 4641, 4578, 0, 0, 4238, 4186, 4086, 4086, 4086, 4086, 4086, 4038, 4038, 4038, 3991, 3991, 3945, 3900, 3900, 3900, 3856, 3856, 3856, 3856, 3856, 3856, 3900, 3900, 3900, 3900, 3900, 3900, 3900, 3900, 3900, 3945, 3945, 3900, 3945, 3945, 3945, 3945, 3991, 3991, 3991, 3991, 3991, 3991, 3991, 3991, 3991, 3991, 3991, 3991, 3991, 4038, 4038, 4038, 4038, 4038, 4038, 4038, 4038, 4038, 4038, 4038, 4038, 4038, 4038, 4038, 4038, 4038, 4038, 4038, 4038, 4038, 4038, 4038, 4038, 4038, 4038, 4038, 3991, 3991, 3991, 3991, 3991, 3991, 3991, 3991, 3991, 3991, 3991, 3945, 3945, 3945, 3945, 3945, 3900, 3900, 3900, 3856, 3856, 3856, 3856, 3856, 3856, 3813, 3813, 3813, 3813, 3813, 3813, 3813, 3813, 3813, 3813, 3813, 3771, 3771, 3771, 3771, 3730, 3730, 3730, 3730, 3730, 3730, 0, 0, 0, 3397, 3465, 3465, 3501, 0, 0, 0, 0, 0, 3612, 0, 0, 0, 0, 0, 0, 0, 0, 0, 0, 0, 0, 0, 0, 0, 0, 0, 0, 0, 0, 0, 0, 0, 0, 0, 0, 0, 0, 0, 0, 0, 0, 0, 0, 0, 0, 0, 0, 0, 0, 0, 0, 0, 0, 0, 0, 0, 0, 0, 0, 0, 0, 0, 0, 0, 0, 0, 0, 0, 0, 0, 0, 0, 0, 0, 0, 0, 0, 0, 0, 0, 0, 0, 0, 0, 0, 0, 0, 0, 0, 0, 0, 0, 3176, 3147, 3118, 3118, 3118, 3118, 3118, 3090, 3090, 3090, 3090, 3090, 3062, 3062, 3062, 3062, 3035, 3035, 3035, 3035, 3035, 3008, 3008, 3008, 3008, 3008, 3008, 2982, 2982, 2982, 2982, 2982, 2956, 2956, 2956, 2931, 2931, 2931, 2931, 2931, 2931, 2931, 2931, 2931, 2931, 2906, 2906, 2906, 2906, 2906, 2906, 2906, 2906, 2882, 2882, 2882, 2882, 2858, 2858, 2858, 2858, 2834, 2834, 2834, 2834, 2834, 2811, 2811, 2811, 2811, 2811, 2811, 2811, 2788, 2788, 2788, 2788, 2788, 2788, 2765, 2765, 2743, 2743, 2743, 2743, 2743, 2721, 2721, 2721, 2721, 2721, 2721, 2721, 2721, 2721, 2700, 2700, 2700, 2700, 2700, 2700, 2679, 2679, 2679, 2679, 2679, 2679, 2679, 2658, 2658, 2658, 2658, 2658, 2658, 2637, 2637, 2637, 2637, 2637, 2637, 2637, 2617, 2617, 2597, 2597, 2597, 2578, 2578, 2578, 2578, 2578, 2578, 2558, 2558, 2558, 2558, 2558, 2558, 2558, 2539, 2539, 2539, 2539, 2539, 2539, 2521, 2521, 2521, 2521, 2521, 2521, 2521, 2502, 2502, 2502, 2502, 2502, 2502, 2484, 2484, 2484, 2484, 2484, 2484, 2466, 2466, 2466, 2466, 2448, 2448, 2448, 2448, 2431, 2431, 2431, 2431, 2431, 2414, 2431, 2431, 2431, 0, 0, 0, 0, 2115, 2129, 2129, 2115, 2142, 2197, 0, 0, 0, 0, 0, 0, 0, 0, 0, 0, 0, 0, 0, 0, 0, 0, 0, 0, 0, 0, 0, 0, 0, 0, 0, 0, 0, 0, 0, 0, 0, 0, 0, 0, 0, 0, 0, 0, 0, 0, 0, 0, 0, 0, 0, 0, 0, 0, 0, 0, 0, 0, 0, 0, 0, 0, 1981, 1981, 1969, 1969, 1981, 1981, 1981, 1981, 1969, 1969, 0, 0, 1969, 1969, 1969, 1958, 1958, 1958, 0, 0, 0, 0, 0, 0, 0, 0, 0, 0, 0, 1903, 1914, 1925, 1925, 1914, 0, 0, 0, 0, 0, 0,
       4578, 4518, 4518, 4578, 4578, 4578, 4578, 4578, 4578, 4578, 4578, 4578, 4578, 4578, 4578, 4641, 4641, 4641, 4641, 4641, 4641, 4641, 4641, 4641, 4641, 4641, 4641, 4641, 4641, 4641, 4641, 4641, 4641, 4641, 4518, 4291, 4186, 4186, 4136, 4086, 4038, 4038, 4038, 4038, 4038, 4038, 4038, 3991, 3991, 3945, 3945, 3900, 3900, 3856, 3856, 3856, 3856, 3856, 3900, 3900, 3900, 3900, 3900, 3900, 3900, 3900, 3900, 3900, 3945, 3945, 3945, 3945, 3945, 3945, 3945, 3991, 3991, 3991, 3991, 3991, 3991, 3991, 3991, 3991, 3991, 3991, 3991, 3991, 4038, 4038, 4038, 4038, 4038, 4038, 4038, 4038, 4038, 4038, 4038, 4038, 4038, 4038, 4038, 4038, 4038, 4038, 4038, 4038, 4038, 4038, 4038, 4038, 4038, 4038, 4038, 3991, 3991, 3991, 3991, 3991, 3991, 3991, 3991, 3991, 3991, 3945, 3945, 3945, 3945, 3945, 3945, 3900, 3900, 3900, 3856, 3856, 3856, 3856, 3856, 3856, 3813, 3813, 3813, 3813, 3813, 3813, 3813, 3813, 3813, 3813, 3813, 3771, 3771, 3771, 3771, 3730, 3730, 3730, 3730, 3730, 3730, 0, 0, 0, 0, 0, 0, 0, 0, 0, 0, 0, 0, 0, 0, 0, 0, 0, 0, 0, 0, 0, 0, 0, 0, 0, 0, 0, 0, 0, 0, 0, 0, 0, 0, 0, 0, 0, 0, 0, 0, 0, 0, 0, 0, 0, 0, 0, 0, 0, 0, 0, 0, 0, 0, 0, 0, 0, 0, 0, 0, 0, 0, 0, 0, 0, 0, 0, 0, 0, 0, 0, 0, 0, 0, 0, 0, 0, 0, 0, 0, 0, 0, 0, 0, 0, 0, 0, 0, 0, 0, 0, 0, 0, 0, 0, 3298, 3147, 3147, 3118, 3118, 3118, 3118, 3118, 3090, 3090, 3090, 3090, 3090, 3062, 3062, 3062, 3062, 3035, 3035, 3035, 3035, 3035, 3008, 3008, 3008, 3008, 3008, 3008, 2982, 2982, 2982, 2982, 2982, 2956, 2956, 2956, 2956, 2931, 2931, 2931, 2931, 2931, 2931, 2931, 2931, 2931, 2906, 2906, 2906, 2906, 2906, 2906, 2906, 2906, 2882, 2882, 2882, 2882, 2882, 2858, 2858, 2858, 2834, 2834, 2834, 2834, 2834, 2811, 2811, 2811, 2811, 2811, 2811, 2811, 2788, 2788, 2788, 2788, 2765, 2765, 2765, 2765, 2743, 2743, 2743, 2743, 2743, 2721, 2721, 2721, 2721, 2721, 2721, 2721, 2721, 2700, 2700, 2700, 2700, 2700, 2700, 2679, 2679, 2679, 2679, 2679, 2679, 2679, 2679, 2658, 2658, 2658, 2658, 2658, 2658, 2637, 2637, 2637, 2637, 2637, 2637, 2637, 2617, 2617, 2617, 2597, 2597, 2597, 2578, 2578, 2578, 2578, 2578, 2578, 2558, 2558, 2558, 2558, 2558, 2558, 2539, 2539, 2539, 2539, 2539, 2539, 2521, 2521, 2521, 2521, 2521, 2521, 2521, 2502, 2502, 2502, 2502, 2502, 2502, 2484, 2484, 2484, 2484, 2484, 2466, 2466, 2466, 2466, 2466, 2448, 2448, 2448, 2448, 2431, 2431, 2431, 2431, 2431, 2414, 2431, 2431, 2431, 0, 0, 0, 0, 2129, 2129, 2129, 2115, 2115, 2129, 0, 0, 0, 0, 0, 0, 0, 0, 0, 0, 0, 0, 0, 0, 0, 0, 0, 0, 0, 0, 0, 0, 0, 0, 0, 0, 0, 0, 0, 0, 0, 0, 0, 0, 0, 0, 0, 0, 0, 0, 0, 0, 0, 0, 0, 0, 0, 0, 0, 0, 0, 0, 0, 0, 0, 1969, 1969, 1969, 1969, 0, 0, 0, 1969, 1981, 1969, 1981, 1981, 1981, 1981, 1969, 1969, 1969, 1958, 1969, 1969, 1947, 1925, 1925, 1914, 1903, 1903, 1914, 1914, 1914, 1914, 1914, 1914, 1925, 1925, 1914, 1903, 1893, 1903, 0, 0, 0,
       4578, 4518, 4578, 4578, 4578, 4578, 4578, 4578, 4578, 4578, 4578, 4578, 4578, 4578, 4578, 4641, 4641, 4641, 4641, 4641, 4641, 4641, 4641, 4641, 4641, 4641, 4641, 4641, 4641, 4641, 4641, 4641, 4641, 4518, 4346, 4186, 4136, 4086, 4086, 4038, 4038, 4038, 4038, 4038, 4038, 4038, 3991, 3991, 3991, 3945, 3945, 3900, 3900, 3900, 3900, 3856, 3900, 3900, 3900, 3900, 3900, 3900, 3900, 3900, 3900, 3900, 3900, 3900, 3945, 3945, 3945, 3945, 3945, 3945, 3945, 3945, 3945, 3991, 3991, 3991, 3991, 3991, 3991, 3991, 3991, 3991, 3991, 3991, 4038, 4038, 4038, 4038, 4038, 4038, 4038, 4038, 4038, 4038, 4038, 4038, 4038, 4038, 4038, 4038, 4038, 4038, 4038, 4038, 4038, 4038, 4038, 4038, 4038, 4038, 4038, 3991, 3991, 3991, 3991, 3991, 3991, 3991, 3991, 3991, 3991, 3945, 3945, 3945, 3945, 3945, 3945, 3900, 3900, 3900, 3856, 3856, 3856, 3856, 3856, 3856, 3813, 3813, 3813, 3813, 3813, 3813, 3813, 3813, 3813, 3813, 3771, 3771, 3771, 3771, 3771, 3730, 3771, 3771, 3730, 3730, 0, 0, 0, 0, 0, 0, 0, 0, 0, 0, 0, 0, 0, 0, 0, 0, 0, 0, 0, 0, 0, 0, 0, 0, 0, 0, 0, 0, 0, 0, 0, 0, 0, 0, 0, 0, 0, 0, 0, 0, 0, 0, 0, 0, 0, 0, 0, 0, 0, 0, 0, 0, 0, 0, 0, 0, 0, 0, 0, 0, 0, 0, 0, 0, 0, 0, 0, 0, 0, 0, 0, 0, 0, 0, 0, 0, 0, 0, 0, 0, 0, 0, 0, 0, 0, 0, 0, 0, 0, 0, 0, 0, 0, 0, 0, 0, 3176, 3147, 3147, 3147, 3118, 3118, 3118, 3118, 3090, 3090, 3090, 3090, 3090, 3062, 3062, 3062, 3062, 3035, 3035, 3035, 3035, 3035, 3008, 3008, 3008, 3008, 3008, 3008, 2982, 2982, 2982, 2982, 2956, 2956, 2956, 2956, 2956, 2931, 2931, 2931, 2931, 2931, 2931, 2931, 2931, 2931, 2906, 2906, 2906, 2906, 2906, 2906, 2906, 2906, 2906, 2882, 2882, 2882, 2858, 2858, 2858, 2858, 2834, 2834, 2834, 2834, 2834, 2811, 2811, 2811, 2811, 2811, 2811, 2811, 2788, 2788, 2788, 2788, 2788, 2765, 2765, 2765, 2765, 2743, 2743, 2743, 2743, 2721, 2721, 2721, 2721, 2721, 2721, 2721, 2721, 2700, 2700, 2700, 2700, 2700, 2700, 2700, 2700, 2679, 2679, 2679, 2679, 2679, 2679, 2679, 2658, 2658, 2658, 2658, 2658, 2637, 2637, 2637, 2637, 2637, 2617, 2617, 2617, 2617, 2617, 2597, 2597, 2597, 2597, 2578, 2578, 2578, 2578, 2578, 2578, 2558, 2558, 2558, 2558, 2558, 2558, 2539, 2539, 2539, 2539, 2539, 2539, 2521, 2521, 2521, 2521, 2521, 2521, 2502, 2502, 2502, 2502, 2502, 2502, 2484, 2484, 2484, 2484, 2484, 2466, 2466, 2466, 2466, 2448, 2448, 2448, 2448, 2448, 2448, 2431, 2431, 2431, 2431, 2431, 2431, 2431, 2431, 2431, 0, 0, 0, 2129, 2129, 2129, 2129, 2115, 2115, 2129, 0, 0, 0, 0, 0, 0, 0, 0, 0, 0, 0, 0, 0, 0, 0, 0, 0, 0, 0, 0, 0, 0, 0, 0, 0, 0, 0, 0, 0, 0, 0, 0, 0, 0, 0, 0, 0, 0, 0, 0, 0, 0, 0, 0, 0, 0, 0, 0, 0, 0, 0, 0, 0, 0, 1958, 1969, 0, 0, 0, 0, 0, 0, 1981, 1981, 1981, 1981, 1981, 1981, 1969, 1969, 1958, 1947, 1969, 1969, 1947, 1925, 1914, 1914, 1903, 1903, 1903, 1903, 1903, 1914, 1914, 1914, 1925, 1925, 1914, 0, 0, 0, 0, 0, 0,
       4578, 4578, 4578, 4578, 4578, 4578, 4578, 4578, 4578, 4578, 4578, 4578, 4578, 4578, 4578, 4641, 4641, 4641, 4641, 4641, 4641, 4641, 4641, 4641, 4641, 4641, 4641, 4641, 4641, 4641, 4641, 4641, 4578, 4402, 4238, 4136, 4086, 4038, 4038, 4038, 4038, 4038, 4038, 4038, 4038, 3991, 3991, 3991, 3991, 3945, 3945, 3900, 3900, 3900, 3900, 3900, 3900, 3900, 3900, 3900, 3900, 3900, 3900, 3900, 3900, 3900, 3900, 3900, 3945, 3945, 3945, 3945, 3945, 3945, 3945, 3945, 3945, 3991, 3991, 3991, 3991, 3991, 3991, 3991, 3991, 3991, 3991, 3991, 4038, 4038, 4038, 4038, 4038, 4038, 4038, 4038, 4038, 4038, 4038, 4038, 4038, 4038, 4038, 4038, 3991, 3991, 3991, 4038, 4038, 4038, 4038, 4038, 4038, 4038, 4038, 3991, 3991, 3991, 3991, 3991, 3991, 3991, 3945, 3945, 3945, 3945, 3945, 3945, 3945, 3945, 3945, 3900, 3900, 3900, 3856, 3856, 3856, 3856, 3856, 3856, 3856, 3813, 3813, 3813, 3813, 3813, 3813, 3813, 3813, 3771, 3771, 3771, 3771, 3771, 3771, 3771, 3771, 3771, 3771, 0, 0, 0, 0, 0, 0, 0, 0, 0, 0, 0, 0, 0, 0, 0, 0, 0, 0, 0, 0, 0, 0, 0, 0, 0, 0, 0, 0, 0, 0, 0, 0, 0, 0, 0, 0, 0, 0, 0, 0, 0, 0, 0, 0, 0, 0, 0, 0, 0, 0, 0, 0, 0, 0, 0, 0, 0, 0, 0, 0, 0, 0, 0, 0, 0, 0, 0, 0, 0, 0, 0, 0, 0, 0, 0, 0, 0, 0, 0, 0, 0, 0, 0, 0, 0, 0, 0, 0, 0, 0, 0, 0, 0, 0, 0, 0, 0, 3176, 3147, 3147, 3147, 3118, 3118, 3118, 3118, 3090, 3090, 3090, 3090, 3090, 3062, 3062, 3062, 3062, 3035, 3035, 3035, 3035, 3035, 3008, 3008, 3008, 3008, 3008, 2982, 2982, 2982, 2982, 2982, 2956, 2956, 2956, 2956, 2956, 2931, 2931, 2931, 2931, 2931, 2931, 2931, 2931, 2931, 2906, 2906, 2906, 2906, 2906, 2906, 2906, 2906, 2882, 2882, 2882, 2882, 2858, 2858, 2858, 2858, 2834, 2834, 2834, 2834, 2834, 2811, 2811, 2811, 2811, 2811, 2811, 2811, 2788, 2788, 2788, 2788, 2788, 2765, 2765, 2765, 2765, 2743, 2743, 2743, 2743, 2721, 2721, 2721, 2721, 2721, 2721, 2721, 2721, 2700, 2700, 2700, 2700, 2700, 2700, 2700, 2700, 2679, 2679, 2679, 2679, 2679, 2679, 2679, 2658, 2658, 2658, 2658, 2637, 2637, 2637, 2637, 2637, 2637, 2617, 2617, 2617, 2617, 2617, 2597, 2597, 2597, 2597, 2578, 2578, 2578, 2578, 2578, 2578, 2558, 2558, 2558, 2558, 2558, 2558, 2558, 2558, 2539, 2539, 2539, 2539, 2521, 2521, 2521, 2521, 2521, 2521, 2502, 2502, 2502, 2502, 2502, 2502, 2484, 2484, 2484, 2484, 2484, 2466, 2466, 2466, 2466, 2448, 2448, 2448, 2448, 2448, 2448, 2448, 2431, 2431, 2431, 2431, 2431, 2431, 2431, 2431, 2380, 0, 2115, 2115, 2115, 2115, 2115, 2115, 2115, 2115, 0, 0, 0, 0, 0, 0, 0, 0, 0, 0, 0, 0, 0, 0, 0, 0, 0, 0, 0, 0, 0, 0, 0, 0, 0, 0, 0, 0, 0, 0, 0, 0, 0, 0, 0, 0, 0, 0, 0, 0, 0, 0, 0, 0, 0, 0, 0, 0, 0, 0, 0, 0, 0, 0, 1958, 1958, 0, 0, 0, 0, 0, 0, 1981, 1981, 1981, 1981, 1969, 1969, 1969, 1969, 1958, 1947, 1969, 1969, 1936, 1925, 1914, 1903, 1903, 1903, 1903, 1903, 1903, 1903, 1903, 1914, 1925, 1914, 0, 0, 0, 0, 0, 0, 0,
       4578, 4578, 4578, 4578, 4578, 4578, 4578, 4578, 4578, 4578, 4578, 4578, 4578, 4578, 4641, 4641, 4641, 4641, 4641, 4641, 4641, 4641, 4641, 4641, 4641, 4641, 4641, 4641, 4641, 4641, 4641, 4518, 4402, 4238, 4136, 4086, 4038, 4038, 4038, 4038, 4038, 4038, 4038, 4038, 4038, 3991, 3991, 3991, 3991, 3945, 3945, 3900, 3900, 3900, 3900, 3900, 3900, 3900, 3900, 3900, 3900, 3900, 3900, 3900, 3900, 3900, 3900, 3900, 3945, 3945, 3945, 3945, 3945, 3945, 3945, 3945, 3945, 3991, 3991, 3991, 3991, 3991, 3991, 3991, 3991, 3991, 3991, 3991, 4038, 4038, 4038, 4038, 4038, 4038, 4038, 4038, 4038, 4038, 4038, 4038, 4038, 4038, 4038, 4038, 4038, 4038, 4038, 4038, 4038, 4038, 4038, 4038, 4038, 3991, 3991, 3991, 3991, 3991, 3991, 3991, 3991, 3991, 3945, 3945, 3945, 3945, 3945, 3945, 3945, 3945, 3945, 3900, 3900, 3900, 3900, 3856, 3856, 3856, 3856, 3856, 3856, 3856, 3856, 3813, 3813, 3813, 3813, 3813, 3813, 3771, 3771, 3771, 3771, 3771, 3771, 3771, 3771, 3771, 3771, 0, 0, 0, 0, 0, 0, 0, 0, 0, 0, 0, 0, 0, 0, 0, 0, 0, 0, 0, 0, 0, 0, 0, 0, 0, 0, 0, 0, 0, 0, 0, 0, 0, 0, 0, 0, 0, 0, 0, 0, 0, 0, 0, 0, 0, 0, 0, 0, 0, 0, 0, 0, 0, 0, 0, 0, 0, 0, 0, 0, 0, 0, 0, 0, 0, 0, 0, 0, 0, 0, 0, 0, 0, 0, 0, 0, 0, 0, 0, 0, 0, 0, 0, 0, 0, 0, 0, 0, 0, 0, 0, 0, 0, 0, 0, 0, 0, 3176, 3147, 3147, 3147, 3118, 3118, 3118, 3118, 3090, 3090, 3090, 3090, 3062, 3062, 3062, 3062, 3035, 3035, 3035, 3035, 3035, 3035, 3008, 3008, 3008, 3008, 3008, 2982, 2982, 2982, 2982, 2982, 2956, 2956, 2956, 2956, 2956, 2931, 2931, 2931, 2931, 2931, 2931, 2931, 2931, 2931, 2906, 2906, 2906, 2906, 2906, 2906, 2906, 2906, 2882, 2882, 2882, 2882, 2858, 2858, 2858, 2834, 2834, 2834, 2834, 2811, 2811, 2811, 2811, 2811, 2811, 2811, 2811, 2811, 2788, 2788, 2788, 2788, 2788, 2765, 2765, 2765, 2765, 2743, 2743, 2743, 2743, 2743, 2721, 2721, 2721, 2721, 2721, 2721, 2721, 2721, 2700, 2700, 2700, 2700, 2700, 2700, 2700, 2679, 2679, 2679, 2679, 2679, 2679, 2679, 2658, 2658, 2658, 2658, 2637, 2637, 2637, 2637, 2637, 2617, 2617, 2617, 2617, 2617, 2617, 2597, 2597, 2597, 2597, 2578, 2578, 2578, 2578, 2578, 2578, 2558, 2558, 2558, 2558, 2558, 2558, 2558, 2558, 2539, 2539, 2539, 2539, 2539, 2521, 2521, 2521, 2502, 2502, 2502, 2502, 2502, 2502, 2502, 2502, 2484, 2484, 2484, 2484, 2484, 2466, 2466, 2466, 2466, 2448, 2448, 2448, 2448, 2448, 2448, 2448, 2431, 2431, 2431, 2431, 2431, 2431, 2431, 2431, 2431, 0, 2142, 2115, 2115, 2115, 2115, 2115, 2102, 0, 0, 0, 0, 0, 0, 0, 0, 0, 0, 0, 0, 0, 0, 0, 0, 0, 0, 0, 0, 0, 0, 0, 0, 0, 0, 0, 0, 0, 0, 0, 0, 0, 0, 0, 0, 0, 0, 0, 0, 0, 0, 0, 0, 0, 0, 0, 0, 0, 0, 0, 0, 0, 0, 0, 1958, 1958, 1969, 0, 0, 0, 0, 0, 1969, 1969, 1981, 1981, 0, 0, 1969, 1969, 1958, 1958, 1969, 1969, 1936, 1925, 1914, 1914, 1903, 1903, 1903, 1903, 1903, 1914, 1914, 1914, 1925, 1914, 0, 0, 0, 0, 0, 0, 0,
       4578, 4578, 4578, 4578, 4578, 4578, 4578, 4578, 4578, 4578, 4578, 4578, 4578, 4641, 4641, 4641, 4641, 4641, 4641, 4641, 4641, 4641, 4641, 4641, 4641, 4641, 4641, 4641, 4641, 4641, 4578, 0, 0, 3900, 4136, 4086, 4038, 4038, 4038, 4038, 4038, 4038, 4038, 4038, 4038, 4038, 4038, 3991, 3991, 3991, 3945, 3900, 3900, 3900, 3900, 3900, 3900, 3900, 3900, 3900, 3900, 3900, 3900, 3900, 3900, 3900, 3900, 3900, 3945, 3945, 3945, 3945, 3945, 3945, 3945, 3945, 3945, 3945, 3945, 3991, 3991, 3991, 3991, 3991, 3991, 3991, 3991, 3991, 4038, 4038, 4038, 4038, 4038, 4038, 4038, 4038, 4038, 4038, 4038, 4038, 4038, 4038, 4038, 4038, 4038, 4038, 4038, 4038, 4038, 4038, 4038, 4038, 4038, 3991, 3991, 3991, 3991, 3991, 3991, 3991, 3991, 3991, 3945, 3945, 3945, 3945, 3945, 3945, 3945, 3945, 3900, 3900, 3900, 3900, 3900, 3856, 3856, 3856, 3856, 3856, 3856, 3856, 3856, 3813, 3813, 3813, 3813, 3813, 3813, 3771, 3771, 3771, 3771, 3771, 3771, 3730, 3771, 3771, 3771, 0, 0, 0, 0, 0, 0, 0, 0, 0, 0, 0, 0, 0, 0, 0, 0, 0, 0, 0, 0, 0, 0, 0, 0, 0, 0, 0, 0, 0, 0, 0, 0, 0, 0, 0, 0, 0, 0, 0, 0, 0, 0, 0, 0, 0, 0, 0, 0, 0, 0, 0, 0, 0, 0, 0, 0, 0, 0, 0, 0, 0, 0, 0, 0, 0, 0, 0, 0, 0, 0, 0, 0, 0, 0, 0, 0, 0, 0, 0, 0, 0, 0, 0, 0, 0, 0, 0, 0, 0, 0, 0, 0, 0, 0, 0, 0, 0, 3176, 3176, 3147, 3147, 3118, 3118, 3118, 3118, 3090, 3090, 3090, 3062, 3062, 3062, 3062, 3062, 3035, 3035, 3035, 3035, 3035, 3035, 3008, 3008, 3008, 3008, 3008, 2982, 2982, 2982, 2982, 2982, 2956, 2956, 2956, 2956, 2956, 2931, 2931, 2931, 2931, 2931, 2931, 2931, 2931, 2931, 2906, 2906, 2906, 2906, 2906, 2906, 2906, 2906, 2882, 2882, 2882, 2858, 2858, 2834, 2834, 2834, 2834, 2834, 2834, 2811, 2811, 2811, 2811, 2811, 2811, 2811, 2811, 2811, 2788, 2788, 2788, 2788, 2788, 2765, 2765, 2765, 2765, 2765, 2743, 2743, 2743, 2743, 2721, 2721, 2721, 2721, 2721, 2721, 2721, 2721, 2700, 2700, 2700, 2700, 2700, 2700, 2700, 2679, 2679, 2679, 2679, 2679, 2679, 2679, 2658, 2658, 2658, 2658, 2658, 2637, 2637, 2637, 2637, 2637, 2617, 2617, 2617, 2617, 2617, 2597, 2597, 2597, 2597, 2578, 2578, 2578, 2578, 2578, 2578, 2578, 2558, 2558, 2558, 2558, 2558, 2558, 2558, 2539, 2539, 2539, 2539, 2539, 2521, 2521, 2521, 2521, 2502, 2502, 2502, 2502, 2502, 2502, 2484, 2484, 2484, 2484, 2484, 2466, 2466, 2466, 2466, 2448, 2448, 2448, 2448, 2448, 2448, 2448, 2448, 2431, 2431, 2431, 2431, 2431, 2431, 2431, 2431, 2431, 0, 0, 2115, 2115, 2115, 2115, 2115, 2102, 0, 0, 0, 0, 0, 0, 0, 0, 0, 0, 0, 0, 0, 0, 0, 0, 0, 0, 0, 0, 0, 0, 0, 0, 0, 0, 0, 0, 0, 0, 0, 0, 0, 0, 0, 0, 0, 0, 0, 0, 0, 0, 0, 0, 0, 0, 0, 0, 0, 0, 0, 0, 0, 0, 0, 1958, 1958, 1969, 0, 0, 0, 0, 1969, 1969, 1969, 1981, 1981, 0, 0, 1969, 1969, 1969, 1969, 1969, 1969, 1947, 1925, 1914, 1914, 1914, 1914, 1914, 1914, 1914, 1914, 1914, 1914, 1925, 1914, 1958, 0, 0, 0, 0, 0, 0,
       4578, 4578, 4578, 4578, 4578, 4578, 4578, 4578, 4578, 4578, 4578, 4578, 4578, 4641, 4641, 4641, 4641, 4641, 4641, 4641, 4704, 4704, 4704, 4641, 4641, 4641, 4641, 4641, 4578, 4578, 4518, 4238, 4038, 4086, 4086, 4086, 4038, 4038, 4038, 4038, 4038, 4038, 4038, 4038, 4038, 4038, 4038, 3991, 3991, 3991, 3945, 3900, 3900, 3900, 3900, 3900, 3900, 3900, 3900, 3900, 3900, 3900, 3900, 3900, 3900, 3900, 3900, 3900, 3945, 3945, 3945, 3945, 3945, 3945, 3945, 3945, 3945, 3945, 3945, 3991, 3991, 3991, 3991, 3991, 3991, 3991, 3991, 3991, 4038, 4038, 4038, 4038, 4038, 4038, 4038, 4038, 4038, 4038, 4038, 4038, 4038, 4038, 4038, 4038, 4038, 4038, 4038, 4038, 4038, 3991, 3991, 4038, 4038, 4038, 4038, 3991, 3991, 3991, 3991, 3991, 3991, 3991, 3991, 3945, 3945, 3945, 3945, 3900, 3900, 3900, 3900, 3900, 3900, 3900, 3900, 3900, 3856, 3856, 3856, 3856, 3856, 3856, 3856, 3813, 3813, 3813, 3771, 3771, 3771, 3771, 3771, 3771, 3771, 3771, 3771, 3771, 3771, 3771, 3813, 0, 0, 0, 0, 0, 0, 0, 0, 0, 0, 0, 0, 0, 0, 0, 0, 0, 0, 0, 0, 0, 0, 0, 0, 0, 0, 0, 0, 0, 0, 0, 0, 0, 0, 0, 0, 0, 0, 0, 0, 0, 0, 0, 0, 0, 0, 0, 0, 0, 0, 0, 0, 0, 0, 0, 0, 0, 0, 0, 0, 0, 0, 0, 0, 0, 0, 0, 0, 0, 0, 0, 0, 0, 0, 0, 0, 0, 0, 0, 0, 0, 0, 0, 0, 0, 0, 0, 0, 0, 0, 0, 0, 0, 0, 0, 0, 0, 3176, 3176, 3147, 3147, 3118, 3118, 3118, 3090, 3090, 3090, 3090, 3062, 3062, 3062, 3062, 3062, 3035, 3035, 3035, 3035, 3035, 3035, 3008, 3008, 3008, 3008, 3008, 2982, 2982, 2982, 2982, 2982, 2956, 2956, 2956, 2956, 2956, 2931, 2931, 2931, 2931, 2931, 2931, 2931, 2931, 2931, 2906, 2906, 2906, 2906, 2906, 2906, 2906, 2906, 2882, 2882, 2858, 2858, 2858, 2834, 2834, 2834, 2834, 2834, 2811, 2811, 2811, 2811, 2811, 2811, 2811, 2811, 2811, 2811, 2788, 2788, 2788, 2788, 2788, 2765, 2765, 2765, 2765, 2765, 2743, 2743, 2743, 2743, 2743, 2721, 2721, 2721, 2721, 2721, 2721, 2721, 2721, 2700, 2700, 2700, 2700, 2700, 2700, 2700, 2679, 2679, 2679, 2679, 2679, 2679, 2658, 2658, 2658, 2658, 2658, 2637, 2637, 2637, 2637, 2637, 2617, 2617, 2617, 2617, 2617, 2597, 2597, 2597, 2597, 2578, 2578, 2578, 2578, 2578, 2578, 2578, 2558, 2558, 2558, 2558, 2558, 2539, 2539, 2539, 2539, 2539, 2539, 2539, 2521, 2521, 2521, 2521, 2502, 2502, 2502, 2502, 2502, 2502, 2484, 2484, 2484, 2484, 2466, 2466, 2466, 2466, 2448, 2448, 2448, 2448, 2448, 2448, 2448, 2431, 2431, 2431, 2431, 2431, 2431, 2431, 2431, 2431, 2431, 2431, 0, 0, 2115, 2115, 2115, 2115, 2115, 2102, 2115, 0, 0, 0, 0, 0, 0, 0, 0, 0, 0, 0, 0, 0, 0, 0, 0, 0, 0, 0, 0, 0, 0, 0, 0, 0, 0, 0, 0, 0, 0, 0, 0, 0, 0, 0, 0, 0, 0, 0, 0, 0, 0, 0, 0, 0, 0, 0, 0, 0, 0, 0, 0, 0, 0, 1958, 1958, 1958, 1969, 1969, 1969, 1969, 1969, 1969, 0, 0, 1981, 1981, 1981, 1981, 1981, 1969, 1958, 1969, 1969, 1947, 1925, 1925, 1914, 1914, 1914, 1914, 1914, 1914, 1914, 1914, 1914, 1925, 1914, 1903, 1903, 0, 0, 0, 0, 0,
       4578, 4578, 4578, 4578, 4578, 4578, 4578, 4578, 4578, 4578, 4578, 4578, 4578, 4641, 4641, 4641, 4641, 4641, 4641, 4641, 4704, 4704, 4641, 4641, 4641, 4641, 4641, 4578, 4518, 0, 0, 4238, 4136, 4086, 4086, 4086, 4038, 4038, 4038, 4038, 4038, 4038, 4038, 4038, 4038, 4038, 4038, 3991, 3991, 3991, 3945, 3945, 3900, 3900, 3900, 3900, 3900, 3900, 3900, 3900, 3900, 3900, 3900, 3900, 3900, 3900, 3900, 3900, 3945, 3945, 3945, 3945, 3945, 3945, 3945, 3945, 3945, 3945, 3991, 3991, 3991, 3991, 3991, 3991, 3991, 3991, 3991, 3991, 4038, 4038, 4038, 4038, 4038, 4038, 4038, 4038, 4038, 4038, 4038, 4038, 4038, 4038, 4038, 4038, 4038, 4038, 4038, 4038, 4038, 3991, 3991, 4038, 4038, 4038, 4038, 3991, 3991, 3991, 3991, 3991, 3991, 3991, 3991, 3945, 3945, 3945, 3945, 3900, 3900, 3900, 3900, 3900, 3900, 3900, 3900, 3900, 3900, 3856, 3856, 3856, 3856, 3856, 3813, 3813, 3813, 3813, 3771, 3771, 3771, 3771, 3771, 3771, 3771, 3771, 3771, 3771, 3771, 3771, 3813, 0, 0, 0, 0, 0, 0, 0, 0, 0, 0, 0, 0, 0, 0, 0, 0, 0, 0, 0, 0, 0, 0, 0, 0, 0, 0, 0, 0, 0, 0, 0, 0, 0, 0, 0, 0, 0, 0, 0, 0, 0, 0, 0, 0, 0, 0, 0, 0, 0, 0, 0, 0, 0, 0, 0, 0, 0, 0, 0, 0, 0, 0, 0, 0, 0, 0, 0, 0, 0, 0, 0, 0, 0, 0, 0, 0, 0, 0, 0, 0, 0, 0, 0, 0, 0, 0, 0, 0, 0, 0, 0, 0, 0, 0, 0, 0, 0, 3206, 3176, 3147, 3147, 3118, 3118, 3118, 3118, 3090, 3090, 3090, 3090, 3062, 3062, 3062, 3062, 3062, 3035, 3035, 3035, 3035, 3035, 3008, 3008, 3008, 3008, 3008, 2982, 2982, 2982, 2982, 2982, 2956, 2956, 2956, 2956, 2956, 2931, 2931, 2931, 2931, 2931, 2931, 2931, 2931, 2906, 2906, 2906, 2906, 2906, 2906, 2906, 2882, 2882, 2882, 2882, 2858, 2858, 2858, 2834, 2834, 2834, 2834, 2834, 2811, 2811, 2811, 2811, 2811, 2811, 2811, 2811, 2811, 2811, 2788, 2788, 2788, 2788, 2788, 2765, 2765, 2765, 2765, 2765, 2765, 2743, 2743, 2743, 2743, 2721, 2721, 2721, 2721, 2721, 2721, 2721, 2721, 2700, 2700, 2700, 2700, 2700, 2700, 2700, 2679, 2679, 2679, 2679, 2679, 2679, 2658, 2658, 2658, 2658, 2658, 2637, 2637, 2637, 2637, 2637, 2617, 2617, 2617, 2617, 2597, 2597, 2597, 2597, 2597, 2578, 2578, 2578, 2578, 2578, 2578, 2558, 2558, 2558, 2558, 2558, 2558, 2539, 2539, 2539, 2539, 2539, 2539, 2539, 2521, 2521, 2521, 2521, 2502, 2502, 2502, 2502, 2502, 2502, 2484, 2484, 2484, 2484, 2466, 2466, 2466, 2466, 2448, 2448, 2448, 2448, 2448, 2448, 2431, 2431, 2431, 2431, 2431, 2431, 2431, 2431, 2431, 2431, 2431, 2431, 0, 0, 2102, 2115, 2115, 2102, 2102, 2102, 2102, 2115, 0, 0, 0, 0, 0, 0, 0, 0, 0, 0, 0, 0, 0, 0, 0, 0, 0, 0, 0, 0, 0, 0, 0, 0, 0, 0, 0, 0, 0, 0, 0, 0, 0, 0, 0, 0, 0, 0, 0, 0, 0, 0, 0, 0, 0, 0, 0, 0, 0, 0, 0, 0, 0, 1947, 1958, 1958, 1958, 1969, 1969, 1969, 1969, 1969, 0, 0, 1981, 1981, 1981, 1981, 1981, 1969, 1958, 1969, 1969, 1947, 1925, 1925, 1925, 1914, 1914, 1914, 1914, 1914, 1914, 1914, 1914, 1925, 1914, 1903, 1903, 0, 0, 0, 0, 0,
       4518, 4518, 4518, 4518, 4578, 4578, 4578, 4578, 4578, 4578, 4578, 4578, 4578, 4641, 4641, 4641, 4641, 4641, 4641, 4641, 4641, 4641, 4641, 4641, 4641, 4641, 4641, 4578, 4459, 0, 0, 0, 4086, 4086, 4086, 4086, 4038, 4038, 4038, 4038, 4038, 4038, 4038, 4038, 4038, 4038, 3991, 3991, 3991, 3991, 3945, 3900, 3900, 3900, 3900, 3900, 3900, 3900, 3900, 3900, 3900, 3900, 3900, 3900, 3900, 3900, 3900, 3900, 3900, 3945, 3945, 3945, 3945, 3945, 3945, 3945, 3945, 3991, 3991, 3991, 3991, 3991, 3991, 3991, 3991, 3991, 3991, 3991, 3991, 4038, 4038, 4038, 4038, 4038, 4038, 4038, 4038, 4038, 4038, 4038, 4038, 4038, 4038, 4038, 4038, 3991, 3991, 3991, 3991, 3991, 3991, 4038, 4038, 4038, 4038, 3991, 3991, 3991, 3991, 3991, 3991, 3991, 3991, 3945, 3945, 3945, 3945, 3900, 3900, 3900, 3900, 3900, 3900, 3900, 3900, 3900, 3900, 3856, 3856, 3856, 3856, 3856, 3813, 3813, 3813, 3813, 3771, 3771, 3771, 3771, 3771, 3771, 3771, 3771, 3771, 3771, 3771, 3771, 3771, 0, 0, 0, 0, 0, 0, 0, 0, 0, 0, 0, 0, 0, 0, 0, 0, 0, 0, 0, 0, 0, 0, 0, 0, 0, 0, 0, 0, 0, 0, 0, 0, 0, 0, 0, 0, 0, 0, 0, 0, 0, 0, 0, 0, 0, 0, 0, 0, 0, 0, 0, 0, 0, 0, 0, 0, 0, 0, 0, 0, 0, 0, 0, 0, 0, 0, 0, 0, 0, 0, 0, 0, 0, 0, 0, 0, 0, 0, 0, 0, 0, 0, 0, 0, 0, 0, 0, 0, 0, 0, 0, 0, 0, 0, 0, 0, 3206, 3176, 3176, 3147, 3118, 3118, 3118, 3118, 3090, 3090, 3090, 3090, 3090, 3062, 3062, 3062, 3062, 3062, 3035, 3035, 3035, 3035, 3035, 3008, 3008, 3008, 3008, 3008, 3008, 2982, 2982, 2982, 2982, 2956, 2956, 2956, 2956, 2956, 2956, 2931, 2931, 2931, 2931, 2931, 2931, 2931, 2906, 2906, 2906, 2906, 2906, 2906, 2906, 2882, 2882, 2882, 2882, 2858, 2858, 2858, 2834, 2834, 2834, 2834, 2834, 2834, 2811, 2811, 2811, 2811, 2811, 2811, 2811, 2811, 2788, 2788, 2788, 2788, 2788, 2788, 2765, 2765, 2765, 2765, 2765, 2765, 2765, 2743, 2743, 2743, 2743, 2721, 2721, 2721, 2721, 2721, 2721, 2700, 2700, 2700, 2700, 2700, 2700, 2700, 2700, 2700, 2700, 2679, 2679, 2679, 2679, 2658, 2658, 2658, 2658, 2658, 2637, 2637, 2637, 2637, 2617, 2617, 2617, 2617, 2617, 2597, 2597, 2597, 2597, 2578, 2578, 2578, 2578, 2578, 2578, 2578, 2558, 2558, 2558, 2558, 2558, 2558, 2558, 2558, 2539, 2539, 2539, 2539, 2539, 2521, 2521, 2521, 2521, 2502, 2502, 2502, 2502, 2502, 2484, 2484, 2484, 2484, 2484, 2484, 2466, 2466, 2466, 2466, 2448, 2448, 2448, 2448, 2448, 2448, 2431, 2431, 2431, 2431, 2431, 2431, 2431, 2431, 2431, 2431, 2431, 0, 0, 2102, 2102, 2102, 2102, 2102, 2102, 2102, 2102, 2115, 0, 0, 0, 0, 0, 0, 0, 0, 0, 0, 0, 0, 0, 0, 0, 0, 0, 0, 0, 0, 0, 0, 0, 0, 0, 0, 0, 0, 0, 0, 0, 0, 0, 0, 0, 0, 0, 0, 0, 0, 0, 0, 0, 0, 0, 0, 0, 0, 0, 1992, 1992, 1958, 1958, 1958, 1969, 1969, 1969, 1969, 1969, 1969, 1969, 1958, 0, 0, 0, 0, 0, 0, 0, 0, 0, 0, 0, 1925, 1925, 1925, 1914, 1914, 1914, 1914, 1914, 1914, 1914, 1914, 1925, 1914, 1903, 1903, 0, 0, 0, 0, 0,
       4518, 4518, 4518, 4518, 4578, 4578, 4518, 4578, 4578, 4578, 4578, 4578, 4641, 4641, 4641, 4641, 4641, 4641, 4641, 4641, 4641, 4704, 4704, 4641, 4641, 4641, 4578, 4459, 4346, 0, 0, 0, 4086, 4086, 4086, 4086, 4038, 4038, 4038, 4038, 4038, 4038, 4038, 4038, 4038, 4038, 3991, 3991, 3991, 3945, 3945, 3900, 3856, 3900, 3900, 3900, 3900, 3900, 3900, 3900, 3900, 3900, 3900, 3900, 3900, 3900, 3900, 3900, 3900, 3945, 3945, 3945, 3945, 3945, 3945, 3945, 3945, 3991, 3991, 3991, 3991, 3991, 3991, 3991, 3991, 3991, 3991, 3991, 3991, 4038, 4038, 4038, 4038, 4038, 4038, 4038, 4038, 4038, 4038, 4038, 4038, 4038, 4038, 4038, 3991, 3991, 3991, 3991, 3991, 3991, 4038, 4038, 4038, 4038, 4038, 4038, 3991, 3991, 3991, 3991, 3991, 3991, 3991, 3945, 3945, 3945, 3945, 3945, 3900, 3900, 3900, 3900, 3900, 3900, 3900, 3900, 3900, 3856, 3856, 3856, 3856, 3856, 3813, 3813, 3813, 3813, 3771, 3771, 3771, 3771, 3771, 3771, 3771, 3771, 3771, 3771, 3771, 3771, 3771, 3813, 0, 0, 0, 0, 0, 0, 0, 0, 0, 0, 0, 0, 0, 0, 0, 0, 0, 0, 0, 0, 0, 0, 0, 0, 0, 0, 0, 0, 0, 0, 0, 0, 0, 0, 0, 0, 0, 0, 0, 0, 0, 0, 0, 0, 0, 0, 0, 0, 0, 0, 0, 0, 0, 0, 0, 0, 0, 0, 0, 0, 0, 0, 0, 0, 0, 0, 0, 0, 0, 0, 0, 0, 0, 0, 0, 0, 0, 0, 0, 0, 0, 0, 0, 0, 0, 0, 0, 0, 0, 0, 0, 0, 0, 0, 3176, 3176, 3176, 3147, 3147, 3118, 3118, 3118, 3118, 3090, 3090, 3090, 3090, 3090, 3062, 3062, 3062, 3062, 3062, 3035, 3035, 3035, 3035, 3035, 3008, 3008, 3008, 3008, 3008, 3008, 2982, 2982, 2982, 2982, 2982, 2956, 2956, 2956, 2956, 2956, 2931, 2931, 2931, 2931, 2931, 2931, 2931, 2906, 2906, 2906, 2906, 2906, 2906, 2906, 2882, 2882, 2882, 2882, 2858, 2858, 2858, 2834, 2834, 2834, 2834, 2834, 2834, 2834, 2834, 2811, 2811, 2811, 2811, 2811, 2811, 2811, 2788, 2788, 2788, 2788, 2788, 2765, 2765, 2765, 2765, 2765, 2765, 2765, 2743, 2743, 2743, 2743, 2743, 2721, 2721, 2721, 2721, 2700, 2700, 2700, 2700, 2700, 2700, 2700, 2700, 2700, 2700, 2700, 2679, 2679, 2679, 2679, 2658, 2658, 2658, 2658, 2658, 2637, 2637, 2637, 2637, 2617, 2617, 2617, 2617, 2597, 2597, 2597, 2597, 2597, 2578, 2578, 2578, 2578, 2578, 2578, 2578, 2558, 2558, 2558, 2558, 2558, 2558, 2558, 2558, 2539, 2539, 2539, 2539, 2539, 2521, 2521, 2521, 2502, 2502, 2502, 2502, 2502, 2502, 2484, 2484, 2484, 2484, 2484, 2484, 2466, 2466, 2466, 2466, 2448, 2448, 2448, 2448, 2448, 2448, 2448, 2431, 2431, 2431, 2431, 2431, 2431, 2431, 2431, 2431, 2431, 0, 0, 2102, 2102, 2102, 2102, 2102, 2102, 2102, 2115, 0, 0, 0, 0, 0, 0, 0, 0, 0, 0, 0, 0, 0, 0, 0, 0, 0, 0, 0, 0, 0, 0, 0, 0, 0, 0, 0, 0, 0, 0, 0, 0, 0, 0, 0, 0, 0, 0, 0, 0, 0, 0, 0, 0, 0, 0, 0, 0, 0, 0, 0, 0, 1958, 1958, 1969, 1969, 1969, 1969, 1969, 1969, 1958, 1947, 1903, 0, 0, 0, 0, 0, 0, 0, 0, 0, 0, 0, 1925, 1925, 1925, 1914, 1914, 1914, 1914, 1914, 1914, 1914, 1914, 1914, 1914, 1903, 1903, 0, 0, 0, 0, 0,
       4518, 4518, 4518, 4518, 4578, 4578, 4518, 4578, 4578, 4578, 4578, 4578, 4641, 4641, 4641, 4641, 4641, 4704, 4704, 4704, 4704, 4704, 4704, 4704, 4641, 4641, 4578, 4402, 4291, 4186, 4136, 4136, 4086, 4086, 4086, 4086, 4038, 4038, 4038, 4038, 4038, 4038, 4038, 4038, 4038, 4038, 3991, 3991, 3991, 3945, 3900, 3900, 3856, 3900, 3900, 3900, 3900, 3900, 3900, 3900, 3900, 3900, 3900, 3900, 3900, 3900, 3900, 3900, 3945, 3945, 3945, 3945, 3945, 3945, 3945, 3945, 3945, 3991, 3991, 3991, 3991, 3991, 3991, 3991, 3991, 3991, 3991, 3991, 4038, 4038, 4038, 4038, 4038, 4038, 4038, 4038, 4038, 4038, 4038, 4038, 4038, 4038, 4038, 4038, 3991, 3991, 3991, 3991, 4038, 4038, 4038, 4038, 4038, 4038, 4038, 4038, 3991, 3991, 3991, 3991, 3991, 3991, 3991, 3945, 3945, 3945, 3945, 3945, 3900, 3900, 3900, 3900, 3900, 3900, 3900, 3900, 3900, 3856, 3856, 3856, 3856, 3856, 3813, 3813, 3813, 3813, 3813, 3771, 3771, 3771, 3771, 3771, 3771, 3771, 3771, 3771, 3771, 3771, 3771, 0, 0, 0, 0, 0, 0, 0, 0, 0, 0, 0, 0, 0, 0, 0, 0, 0, 0, 0, 0, 0, 0, 0, 0, 0, 0, 0, 0, 0, 0, 0, 0, 0, 0, 0, 0, 0, 0, 0, 0, 0, 0, 0, 0, 0, 0, 0, 0, 0, 0, 0, 0, 0, 0, 0, 0, 0, 0, 0, 0, 0, 0, 0, 0, 0, 0, 0, 0, 0, 0, 0, 0, 0, 0, 0, 0, 0, 0, 0, 0, 0, 0, 0, 0, 0, 0, 0, 0, 0, 0, 0, 0, 0, 0, 0, 0, 0, 3118, 3147, 3118, 3118, 3118, 3118, 3118, 3090, 3090, 3090, 3090, 3090, 3062, 3062, 3062, 3062, 3062, 3035, 3035, 3035, 3035, 3035, 3008, 3008, 3008, 3008, 3008, 3008, 2982, 2982, 2982, 2982, 2982, 2956, 2956, 2956, 2956, 2956, 2931, 2931, 2931, 2931, 2931, 2906, 2906, 2906, 2906, 2906, 2906, 2906, 2882, 2882, 2882, 2882, 2882, 2858, 2858, 2858, 2858, 2858, 2834, 2834, 2834, 2834, 2834, 2834, 2834, 2811, 2811, 2811, 2811, 2811, 2811, 2811, 2788, 2788, 2788, 2788, 2788, 2765, 2788, 2788, 2765, 2765, 2765, 2765, 2765, 2743, 2743, 2743, 2743, 2721, 2721, 2721, 2721, 2700, 2700, 2700, 2700, 2700, 2700, 2700, 2700, 2700, 2700, 2700, 2679, 2679, 2679, 2679, 2658, 2658, 2658, 2658, 2658, 2637, 2637, 2637, 2637, 2617, 2617, 2617, 2617, 2617, 2597, 2597, 2597, 2597, 2597, 2578, 2578, 2578, 2578, 2578, 2578, 2558, 2558, 2558, 2558, 2558, 2558, 2539, 2539, 2539, 2539, 2539, 2539, 2539, 2521, 2521, 2521, 2502, 2502, 2502, 2502, 2502, 2502, 2502, 2502, 2484, 2484, 2484, 2484, 2484, 2466, 2466, 2466, 2466, 2448, 2448, 2448, 2448, 2448, 2448, 2431, 2431, 2431, 2431, 2431, 2431, 2431, 2431, 2431, 2431, 0, 0, 2102, 2102, 2102, 2102, 2102, 2102, 2115, 2115, 0, 0, 0, 0, 0, 0, 0, 0, 0, 0, 0, 0, 0, 0, 0, 0, 0, 0, 0, 0, 0, 0, 0, 0, 0, 0, 0, 0, 0, 0, 0, 0, 0, 0, 0, 0, 0, 0, 0, 0, 0, 0, 0, 0, 0, 0, 0, 0, 0, 0, 0, 0, 1969, 1969, 1969, 1969, 1969, 1969, 1969, 1969, 1958, 1947, 1882, 1852, 0, 0, 0, 0, 0, 0, 0, 0, 0, 1925, 1925, 1925, 1925, 1914, 1914, 1914, 1914, 1914, 1914, 1903, 1903, 1914, 1903, 1893, 1893, 0, 0, 0, 0, 0,
       4518, 4518, 4518, 4578, 4578, 4578, 4578, 4578, 4578, 4578, 4578, 4578, 4641, 4641, 4641, 4641, 4641, 4704, 4704, 4704, 4704, 4704, 4704, 4704, 4704, 4641, 4578, 4402, 4238, 4186, 4136, 4086, 4086, 4086, 4086, 4086, 4038, 4038, 4038, 4038, 4038, 4038, 4038, 4038, 4038, 3991, 3991, 3991, 3991, 3945, 3900, 3856, 3856, 3900, 3900, 3900, 3900, 3900, 3900, 3900, 3900, 3900, 3900, 3900, 3900, 3900, 3900, 3900, 3945, 3945, 3945, 3945, 3945, 3945, 3945, 3945, 3991, 3991, 3991, 3991, 3991, 3991, 3991, 3991, 3991, 3991, 3991, 4038, 4038, 4038, 4038, 4086, 4086, 4038, 4038, 4038, 4086, 4086, 4038, 4038, 4038, 4038, 4038, 4038, 3991, 4038, 4038, 4038, 4038, 4038, 4038, 4038, 4038, 4038, 4038, 3991, 3991, 3991, 3991, 3991, 3991, 3991, 3991, 3991, 3945, 3945, 3945, 3945, 3900, 3900, 3900, 3900, 3900, 3900, 3900, 3900, 3856, 3856, 3856, 3856, 3856, 3856, 3813, 3813, 3813, 3813, 3813, 3771, 3771, 3771, 3771, 3771, 3771, 3771, 3771, 3771, 3771, 3771, 3771, 0, 0, 0, 0, 0, 0, 0, 0, 0, 0, 0, 0, 0, 0, 0, 0, 0, 0, 0, 0, 0, 0, 0, 0, 0, 0, 0, 0, 0, 0, 0, 0, 0, 0, 0, 0, 0, 0, 0, 0, 0, 0, 0, 0, 0, 0, 0, 0, 0, 0, 0, 0, 0, 0, 0, 0, 0, 0, 0, 0, 0, 0, 0, 0, 0, 0, 0, 0, 0, 0, 0, 0, 0, 0, 0, 0, 0, 0, 0, 0, 0, 0, 0, 0, 0, 0, 0, 0, 0, 0, 0, 0, 0, 0, 0, 0, 0, 3090, 3147, 3118, 3118, 3118, 3118, 3118, 3118, 3090, 3090, 3090, 3090, 3090, 3062, 3062, 3062, 3062, 3062, 3035, 3035, 3035, 3035, 3008, 3008, 3008, 3008, 3008, 3008, 2982, 2982, 2982, 2982, 2982, 2956, 2956, 2956, 2956, 2956, 2931, 2931, 2931, 2931, 2931, 2906, 2906, 2906, 2906, 2906, 2906, 2906, 2882, 2882, 2882, 2882, 2882, 2858, 2858, 2858, 2858, 2858, 2834, 2834, 2834, 2834, 2834, 2834, 2834, 2811, 2811, 2811, 2811, 2811, 2811, 2788, 2788, 2788, 2788, 2788, 2788, 2788, 2788, 2788, 2788, 2765, 2765, 2765, 2765, 2743, 2743, 2743, 2743, 2743, 2721, 2721, 2721, 2700, 2700, 2700, 2700, 2700, 2700, 2700, 2700, 2700, 2700, 2700, 2679, 2679, 2679, 2679, 2658, 2658, 2658, 2658, 2658, 2637, 2637, 2637, 2637, 2617, 2617, 2617, 2617, 2617, 2597, 2597, 2597, 2597, 2578, 2578, 2578, 2578, 2578, 2578, 2578, 2558, 2558, 2558, 2558, 2558, 2558, 2539, 2539, 2539, 2539, 2539, 2539, 2539, 2521, 2521, 2502, 2502, 2502, 2502, 2502, 2502, 2502, 2502, 2484, 2484, 2484, 2484, 2484, 2484, 2466, 2466, 2466, 2466, 2466, 2448, 2448, 2448, 2448, 2448, 2448, 2431, 2431, 2431, 2431, 2414, 2414, 2414, 2414, 2414, 2364, 0, 2102, 2102, 2102, 2102, 2102, 2102, 2115, 2115, 0, 0, 0, 0, 0, 0, 0, 0, 0, 0, 0, 0, 0, 0, 0, 0, 0, 0, 0, 0, 0, 0, 0, 0, 0, 0, 0, 0, 0, 0, 0, 0, 0, 0, 0, 0, 0, 0, 0, 0, 0, 0, 0, 0, 0, 0, 0, 0, 0, 0, 0, 0, 0, 1958, 1969, 1969, 1969, 1958, 1969, 0, 0, 1925, 1872, 1872, 1842, 0, 0, 0, 0, 0, 0, 0, 0, 1925, 1925, 1925, 1925, 1914, 1914, 1914, 1914, 1914, 1914, 1903, 1914, 1914, 1903, 1893, 0, 0, 0, 0, 0, 0,
       4518, 4518, 4518, 4578, 4578, 4578, 4578, 4578, 4578, 4578, 4578, 4641, 4641, 4641, 4641, 4641, 4704, 4704, 4704, 4704, 4704, 4704, 4704, 4704, 4704, 4641, 0, 0, 0, 4136, 4086, 4086, 4086, 4086, 4086, 4086, 4038, 4038, 4038, 4038, 4038, 4038, 4038, 4038, 4038, 3991, 3991, 3991, 3991, 3991, 3900, 3900, 3900, 3900, 3900, 3900, 3900, 3900, 3900, 3900, 3900, 3900, 3900, 3900, 3900, 3900, 3900, 3900, 3900, 3900, 3900, 3945, 3945, 3945, 3945, 3945, 3945, 3991, 3991, 3991, 3991, 3991, 3991, 3991, 3991, 3991, 3991, 4038, 4038, 4038, 4038, 4086, 4086, 4086, 4038, 4038, 4086, 4086, 4038, 4038, 4038, 4038, 4038, 4038, 4038, 4038, 4038, 4038, 4038, 4038, 4038, 4038, 4038, 4038, 4038, 3991, 4038, 3991, 3991, 3991, 3991, 3991, 3991, 3991, 3945, 3945, 3945, 3945, 3900, 3900, 3900, 3900, 3900, 3900, 3900, 3900, 3856, 3856, 3856, 3856, 3856, 3856, 3813, 3813, 3813, 3813, 3813, 3813, 3813, 3771, 3771, 3771, 3771, 3771, 3771, 3771, 3771, 3771, 3771, 0, 0, 0, 0, 0, 0, 0, 0, 0, 0, 0, 0, 0, 0, 0, 0, 0, 0, 0, 0, 0, 0, 0, 0, 0, 0, 0, 0, 0, 0, 0, 0, 0, 0, 0, 0, 0, 0, 0, 0, 0, 0, 0, 0, 0, 0, 0, 0, 0, 0, 0, 0, 0, 0, 0, 0, 0, 0, 0, 0, 0, 0, 0, 0, 0, 0, 0, 0, 0, 0, 0, 0, 0, 0, 0, 0, 0, 0, 0, 0, 0, 0, 0, 0, 0, 0, 0, 0, 0, 0, 0, 0, 0, 0, 0, 0, 0, 0, 0, 3118, 3118, 3118, 3118, 3118, 3090, 3090, 3090, 3090, 3090, 3090, 3090, 3062, 3062, 3062, 3035, 3035, 3035, 3035, 3035, 3008, 3008, 3008, 3008, 3008, 3008, 2982, 2982, 2982, 2982, 2982, 2956, 2956, 2956, 2956, 2956, 2931, 2931, 2931, 2931, 2931, 2906, 2906, 2906, 2906, 2906, 2906, 2906, 2882, 2882, 2882, 2882, 2882, 2858, 2858, 2858, 2858, 2858, 2834, 2834, 2834, 2834, 2834, 2834, 2834, 2811, 2811, 2811, 2811, 2811, 2811, 2788, 2788, 2788, 2788, 2788, 2788, 2788, 2788, 2788, 2788, 2765, 2765, 2765, 2765, 2765, 2743, 2743, 2743, 2743, 2721, 2721, 2700, 2700, 2700, 2700, 2700, 2700, 2700, 2700, 2700, 2700, 2700, 2700, 2679, 2679, 2679, 2679, 2658, 2658, 2658, 2658, 2637, 2637, 2637, 2637, 2637, 2617, 2617, 2617, 2617, 2617, 2597, 2597, 2597, 2597, 2578, 2578, 2578, 2578, 2578, 2578, 2578, 2558, 2558, 2558, 2558, 2558, 2558, 2539, 2539, 2539, 2539, 2539, 2539, 2521, 2521, 2521, 2502, 2502, 2502, 2502, 2502, 2502, 2502, 2484, 2484, 2484, 2484, 2484, 2484, 2484, 2466, 2466, 2466, 2466, 2466, 2448, 2448, 2448, 2448, 2448, 2448, 2431, 2431, 2431, 2431, 2414, 2414, 2414, 2414, 2414, 2332, 0, 2102, 2102, 2102, 2102, 2102, 2102, 2102, 2115, 2129, 0, 0, 0, 0, 0, 0, 0, 0, 0, 0, 0, 0, 0, 0, 0, 0, 0, 0, 0, 0, 0, 0, 0, 0, 0, 0, 0, 0, 0, 0, 0, 0, 0, 0, 0, 0, 0, 0, 0, 0, 0, 0, 0, 0, 0, 0, 0, 0, 0, 0, 0, 0, 1958, 1958, 1958, 1958, 1958, 1958, 0, 0, 0, 0, 1832, 1882, 0, 0, 0, 0, 0, 0, 0, 0, 1925, 1925, 1925, 1925, 1914, 1914, 1914, 1914, 1914, 1914, 1903, 1903, 1903, 1903, 1893, 0, 0, 0, 0, 0, 0,
       4518, 4518, 4518, 4518, 4518, 4578, 4518, 4578, 4578, 4578, 4578, 4578, 4641, 4641, 4641, 4641, 4704, 4704, 4704, 4704, 4704, 4704, 4704, 4704, 4704, 4641, 0, 0, 0, 4136, 4086, 4086, 4038, 4086, 4086, 4038, 4038, 4038, 4038, 4038, 4038, 4038, 4038, 4038, 3991, 3991, 3991, 3991, 3991, 3991, 3945, 3900, 3900, 3900, 3900, 3900, 3900, 3856, 3856, 3900, 3900, 3900, 3900, 3900, 3900, 3900, 3900, 3900, 3900, 3900, 3900, 3900, 3945, 3945, 3945, 3945, 3945, 3945, 3991, 3991, 3991, 3991, 3991, 3991, 3991, 3991, 3991, 4038, 4038, 4038, 4038, 4086, 4086, 4086, 4038, 4038, 4086, 4086, 4038, 4038, 4038, 4038, 4038, 4038, 4038, 4038, 4038, 4038, 4038, 4038, 4038, 4038, 4038, 4038, 4038, 4038, 4038, 4038, 4038, 3991, 3991, 3991, 3991, 3991, 3945, 3945, 3945, 3945, 3900, 3900, 3900, 3900, 3900, 3900, 3900, 3900, 3856, 3856, 3856, 3856, 3856, 3813, 3813, 3813, 3813, 3813, 3813, 3813, 3813, 3771, 3771, 3771, 3771, 3771, 3771, 3771, 3771, 3771, 3771, 3900, 0, 0, 0, 0, 0, 0, 0, 0, 0, 0, 0, 0, 0, 0, 0, 0, 0, 0, 0, 0, 0, 0, 0, 0, 0, 0, 0, 0, 0, 0, 0, 0, 0, 0, 0, 0, 0, 0, 0, 0, 0, 0, 0, 0, 0, 0, 0, 0, 0, 0, 0, 0, 0, 0, 0, 0, 0, 0, 0, 0, 0, 0, 0, 0, 0, 0, 0, 0, 0, 0, 0, 0, 0, 0, 0, 0, 0, 0, 0, 0, 0, 0, 0, 0, 0, 0, 0, 0, 0, 0, 0, 0, 0, 0, 0, 0, 0, 0, 3118, 3118, 3118, 3118, 3118, 3118, 3090, 3090, 3090, 3090, 3090, 3090, 3062, 3062, 3035, 3035, 3035, 3035, 3035, 3008, 3008, 3008, 3008, 3008, 3008, 3008, 2982, 2982, 2982, 2982, 2982, 2956, 2956, 2956, 2956, 2931, 2931, 2931, 2931, 2931, 2931, 2906, 2906, 2906, 2906, 2906, 2906, 2882, 2882, 2882, 2882, 2882, 2882, 2858, 2858, 2858, 2858, 2858, 2858, 2858, 2834, 2834, 2834, 2834, 2834, 2834, 2811, 2811, 2811, 2811, 2811, 2788, 2788, 2788, 2788, 2788, 2788, 2788, 2788, 2788, 2788, 2765, 2765, 2765, 2765, 2765, 2743, 2743, 2743, 2743, 2721, 2721, 2721, 2700, 2700, 2700, 2700, 2700, 2700, 2700, 2700, 2700, 2700, 2700, 2679, 2679, 2679, 2679, 2658, 2658, 2658, 2658, 2658, 2637, 2637, 2637, 2637, 2637, 2617, 2617, 2617, 2617, 2597, 2597, 2597, 2597, 2578, 2578, 2578, 2578, 2578, 2578, 2558, 2558, 2558, 2558, 2558, 2558, 2558, 2539, 2539, 2539, 2539, 2539, 2539, 2521, 2521, 2521, 2521, 2521, 2502, 2502, 2502, 2502, 2502, 2484, 2484, 2484, 2484, 2484, 2484, 2466, 2466, 2466, 2466, 2466, 2466, 2448, 2448, 2448, 2448, 2448, 2431, 2431, 2431, 2431, 2414, 2414, 2414, 2414, 2414, 2414, 2332, 0, 2102, 2102, 2102, 2102, 2102, 2102, 2102, 2102, 2115, 0, 0, 0, 0, 0, 0, 0, 0, 0, 0, 0, 0, 0, 0, 0, 0, 0, 0, 0, 0, 0, 0, 0, 0, 0, 0, 0, 0, 0, 0, 0, 0, 0, 0, 0, 0, 0, 0, 0, 0, 0, 0, 0, 0, 0, 0, 0, 0, 0, 0, 0, 2028, 1958, 1958, 1958, 1958, 1958, 1958, 0, 0, 0, 1813, 1822, 1832, 0, 0, 0, 0, 0, 1925, 1914, 1914, 1914, 1925, 1925, 1925, 1925, 1925, 1925, 1925, 1925, 1914, 1903, 1903, 1903, 1903, 1893, 0, 0, 0, 0, 0, 0,
       4518, 4518, 4518, 4518, 4518, 4518, 4518, 4518, 4578, 4578, 4578, 4578, 4641, 4641, 4641, 4641, 4641, 4704, 4704, 4704, 4704, 4704, 4704, 4704, 4704, 4641, 0, 0, 0, 4136, 4086, 4038, 4038, 4038, 4086, 4038, 4038, 4038, 4038, 4038, 4038, 4038, 4038, 4038, 3991, 3991, 3991, 3991, 3991, 3991, 3945, 3900, 3900, 3900, 3900, 3900, 3900, 3856, 3856, 3900, 3900, 3900, 3900, 3900, 3900, 3900, 3900, 3900, 3900, 3900, 3900, 3900, 3945, 3945, 3945, 3945, 3991, 3991, 3991, 3991, 3991, 3991, 3991, 3991, 3991, 3991, 3991, 4038, 4038, 4038, 4038, 4038, 4086, 4038, 4038, 4038, 4038, 4038, 4038, 4038, 4038, 4038, 4038, 4038, 4038, 4038, 4038, 4038, 4038, 4038, 4038, 4038, 4038, 4038, 4038, 4038, 4038, 4038, 4038, 3991, 3991, 3991, 3991, 3991, 3991, 3945, 3945, 3945, 3900, 3900, 3900, 3900, 3900, 3900, 3856, 3856, 3856, 3856, 3856, 3856, 3856, 3813, 3813, 3813, 3813, 3813, 3813, 3813, 3771, 3771, 3771, 3771, 3771, 3771, 3771, 3771, 3771, 3771, 3771, 0, 0, 0, 0, 0, 0, 0, 0, 0, 0, 0, 0, 0, 0, 0, 0, 0, 0, 0, 0, 0, 0, 0, 0, 0, 0, 0, 0, 0, 0, 0, 0, 0, 0, 0, 0, 0, 0, 0, 0, 0, 0, 0, 0, 0, 0, 0, 0, 0, 0, 0, 0, 0, 0, 0, 0, 0, 0, 0, 0, 0, 0, 0, 0, 0, 0, 0, 0, 0, 0, 0, 0, 0, 0, 0, 0, 0, 0, 0, 0, 0, 0, 0, 0, 0, 0, 0, 0, 0, 0, 0, 0, 0, 0, 0, 0, 0, 0, 0, 3118, 3118, 3090, 3118, 3118, 3118, 3090, 3090, 3090, 3090, 3090, 3090, 3062, 3062, 3062, 3035, 3035, 3035, 3035, 3035, 3008, 3008, 3008, 3008, 3008, 3008, 3008, 2982, 2982, 2982, 2982, 2956, 2956, 2956, 2956, 2931, 2931, 2931, 2931, 2931, 2931, 2906, 2906, 2906, 2906, 2906, 2906, 2882, 2882, 2882, 2882, 2882, 2882, 2858, 2858, 2858, 2858, 2858, 2858, 2858, 2858, 2834, 2834, 2834, 2834, 2834, 2834, 2811, 2811, 2811, 2811, 2788, 2788, 2788, 2788, 2788, 2788, 2765, 2788, 2788, 2788, 2765, 2765, 2765, 2765, 2765, 2743, 2743, 2743, 2743, 2721, 2721, 2721, 2700, 2700, 2700, 2700, 2700, 2700, 2700, 2700, 2700, 2700, 2700, 2679, 2679, 2679, 2679, 2658, 2658, 2658, 2658, 2658, 2637, 2637, 2637, 2637, 2637, 2637, 2617, 2617, 2617, 2597, 2597, 2597, 2597, 2578, 2578, 2578, 2578, 2578, 2578, 2558, 2558, 2558, 2558, 2558, 2558, 2558, 2539, 2539, 2539, 2539, 2539, 2539, 2539, 2521, 2521, 2521, 2521, 2521, 2502, 2502, 2502, 2502, 2502, 2484, 2484, 2484, 2484, 2484, 2466, 2466, 2466, 2466, 2448, 2448, 2448, 2448, 2448, 2448, 2448, 2431, 2431, 2431, 2431, 2414, 2414, 2414, 2414, 2431, 0, 0, 0, 2102, 2102, 2102, 2102, 2102, 2102, 2102, 2102, 2115, 2115, 0, 0, 0, 0, 0, 0, 0, 0, 0, 0, 0, 0, 0, 0, 0, 0, 0, 0, 0, 0, 0, 0, 0, 0, 0, 0, 0, 0, 0, 0, 0, 0, 0, 0, 0, 0, 0, 0, 0, 0, 0, 0, 0, 0, 0, 0, 0, 0, 0, 0, 1992, 1958, 1958, 1958, 1947, 1958, 1958, 0, 0, 1947, 1947, 1925, 0, 0, 0, 0, 0, 0, 1936, 0, 0, 0, 1925, 1925, 1925, 1925, 1925, 1925, 1925, 1925, 1914, 1903, 1903, 1903, 1903, 1893, 0, 0, 0, 0, 0, 0,
       4518, 4518, 4518, 4518, 4518, 4518, 4518, 4518, 4518, 4578, 4578, 4578, 4578, 4641, 4641, 4641, 4641, 4641, 4641, 4641, 4704, 4704, 4704, 4704, 4704, 0, 0, 0, 0, 4136, 4086, 4038, 4038, 4038, 4038, 4038, 4038, 4038, 4038, 3991, 3991, 4038, 4038, 4038, 3991, 3991, 3991, 3991, 3991, 3991, 3945, 3945, 3900, 3900, 3900, 3900, 3900, 3856, 3900, 3900, 3900, 3900, 3900, 3900, 3900, 3900, 3900, 3900, 3900, 3900, 3900, 3900, 3945, 3945, 3945, 3945, 3991, 3991, 3991, 3991, 3991, 3991, 3991, 3991, 3991, 3991, 3991, 4038, 4038, 4038, 4038, 4038, 4038, 4038, 4038, 4038, 4038, 4038, 4038, 4038, 4038, 4038, 4038, 3991, 4038, 4038, 4038, 4038, 4038, 4038, 4038, 4038, 4038, 4038, 4038, 4038, 4038, 4038, 4038, 4038, 3991, 3991, 3991, 3991, 3991, 3945, 3945, 3945, 3900, 3900, 3900, 3900, 3900, 3900, 3856, 3856, 3856, 3856, 3856, 3813, 3813, 3813, 3813, 3813, 3813, 3813, 3813, 3813, 3813, 3813, 3813, 3771, 3771, 3771, 3771, 3771, 3771, 3771, 3771, 3856, 0, 0, 0, 0, 0, 0, 0, 0, 0, 0, 0, 0, 0, 0, 0, 0, 0, 0, 0, 0, 0, 0, 0, 0, 0, 0, 0, 0, 0, 0, 0, 0, 0, 0, 0, 0, 0, 0, 0, 0, 0, 0, 0, 0, 0, 0, 0, 0, 0, 0, 0, 0, 0, 0, 0, 0, 0, 0, 0, 0, 0, 0, 0, 0, 0, 0, 0, 0, 0, 0, 0, 0, 0, 0, 0, 0, 0, 0, 0, 0, 0, 0, 0, 0, 0, 0, 0, 0, 0, 0, 0, 0, 0, 0, 0, 0, 0, 0, 3090, 3118, 3090, 3090, 3118, 3118, 3090, 3090, 3090, 3090, 3090, 3090, 3062, 3062, 3062, 3035, 3035, 3035, 3035, 3035, 3008, 3008, 3008, 3008, 3008, 3008, 2982, 2982, 2982, 2982, 2982, 2982, 2956, 2956, 2956, 2931, 2931, 2931, 2931, 2931, 2931, 2906, 2906, 2906, 2906, 2906, 2882, 2882, 2882, 2882, 2882, 2882, 2882, 2858, 2858, 2858, 2858, 2858, 2858, 2858, 2858, 2834, 2834, 2834, 2834, 2834, 2834, 2811, 2811, 2811, 2811, 2788, 2788, 2788, 2788, 2788, 2788, 2765, 2788, 2788, 2788, 2765, 2765, 2765, 2765, 2765, 2743, 2743, 2743, 2743, 2721, 2721, 2721, 2700, 2700, 2700, 2700, 2700, 2700, 2700, 2700, 2700, 2700, 2700, 2679, 2679, 2679, 2658, 2658, 2658, 2658, 2658, 2637, 2637, 2637, 2637, 2637, 2637, 2637, 2617, 2617, 2617, 2597, 2597, 2597, 2597, 2597, 2578, 2578, 2578, 2578, 2578, 2578, 2558, 2558, 2558, 2558, 2558, 2558, 2539, 2539, 2539, 2539, 2539, 2539, 2521, 2521, 2521, 2521, 2521, 2521, 2502, 2502, 2502, 2502, 2502, 2484, 2484, 2484, 2484, 2484, 2466, 2466, 2466, 2466, 2466, 2466, 2448, 2448, 2448, 2448, 2448, 2431, 2431, 2431, 2431, 2414, 2414, 2414, 2431, 2431, 0, 0, 0, 2102, 2102, 2102, 2102, 2102, 2102, 2102, 2102, 2115, 2115, 2102, 0, 0, 0, 0, 0, 0, 0, 0, 0, 0, 0, 0, 0, 0, 0, 0, 0, 0, 0, 0, 0, 0, 0, 0, 0, 0, 0, 0, 0, 0, 0, 0, 0, 0, 0, 0, 0, 0, 0, 0, 0, 0, 0, 0, 0, 0, 0, 0, 2028, 1981, 1958, 1958, 1947, 1947, 1947, 1947, 1958, 1958, 1958, 1947, 0, 0, 0, 0, 0, 0, 0, 0, 0, 0, 0, 1925, 1925, 1925, 1925, 1925, 1925, 1925, 1925, 1914, 1893, 1893, 1903, 1893, 1882, 0, 0, 0, 0, 0, 0,
       4518, 4518, 4518, 4518, 4518, 4518, 4518, 4518, 4518, 4518, 4578, 4578, 4578, 4641, 4641, 4641, 4641, 4641, 4641, 4641, 4641, 4641, 4704, 4704, 4641, 0, 0, 0, 0, 4136, 4086, 4038, 4038, 4038, 4038, 4038, 4038, 4038, 4038, 3991, 3991, 3991, 4038, 4038, 3991, 3991, 3991, 3991, 3991, 3991, 3945, 3900, 3900, 3900, 3900, 3900, 3900, 3900, 3900, 3900, 3900, 3900, 3900, 3900, 3900, 3900, 3900, 3900, 3900, 3900, 3900, 3900, 3945, 3945, 3945, 3991, 3991, 3991, 3991, 3991, 3991, 3991, 3991, 3991, 3991, 3991, 3991, 4038, 4038, 4038, 4038, 4038, 4038, 4038, 4038, 4038, 4038, 4038, 4038, 4038, 4038, 4038, 4038, 3991, 4038, 4038, 4038, 4038, 4038, 4038, 4038, 4038, 4038, 4038, 4038, 4038, 4038, 4038, 4038, 4038, 3991, 3991, 3991, 3991, 3991, 3991, 3991, 3945, 3945, 3900, 3900, 3900, 3900, 3900, 3856, 3856, 3856, 3856, 3856, 3813, 3813, 3813, 3813, 3813, 3813, 3813, 3813, 3813, 3813, 3813, 3813, 3813, 3771, 3771, 3771, 3771, 3771, 3771, 3771, 3730, 3730, 0, 0, 0, 0, 0, 0, 0, 0, 0, 0, 0, 0, 0, 0, 0, 0, 0, 0, 0, 0, 0, 0, 0, 0, 0, 0, 0, 0, 0, 0, 0, 0, 0, 0, 0, 0, 0, 0, 0, 0, 0, 0, 0, 0, 0, 0, 0, 0, 0, 0, 0, 0, 0, 0, 0, 0, 0, 0, 0, 0, 0, 0, 0, 0, 0, 0, 0, 0, 0, 0, 0, 0, 0, 0, 0, 0, 0, 0, 0, 0, 0, 0, 0, 0, 0, 0, 0, 0, 0, 0, 0, 0, 0, 0, 0, 0, 0, 3090, 3118, 3090, 3118, 3118, 3118, 3118, 3090, 3090, 3090, 3090, 3090, 3062, 3062, 3062, 3035, 3035, 3035, 3035, 3035, 3008, 3008, 3008, 3008, 3008, 3008, 3008, 2982, 2982, 2982, 2982, 2982, 2956, 2956, 2956, 2931, 2931, 2931, 2931, 2931, 2931, 2906, 2906, 2906, 2906, 2906, 2882, 2882, 2882, 2882, 2882, 2882, 2882, 2858, 2858, 2858, 2858, 2858, 2858, 2858, 2858, 2858, 2858, 2834, 2834, 2834, 2834, 2811, 2811, 2811, 2811, 2811, 2788, 2788, 2788, 2788, 2788, 2788, 2788, 2788, 2788, 2765, 2765, 2765, 2765, 2765, 2743, 2743, 2743, 2721, 2721, 2721, 2721, 2700, 2700, 2700, 2700, 2700, 2700, 2700, 2700, 2700, 2700, 2700, 2679, 2679, 2679, 2658, 2658, 2658, 2658, 2658, 2637, 2637, 2637, 2637, 2637, 2637, 2617, 2617, 2617, 2617, 2597, 2597, 2597, 2597, 2578, 2578, 2578, 2578, 2578, 2578, 2558, 2558, 2558, 2558, 2558, 2558, 2558, 2558, 2539, 2539, 2539, 2539, 2539, 2521, 2521, 2521, 2521, 2521, 2521, 2502, 2502, 2502, 2502, 2502, 2502, 2484, 2484, 2484, 2484, 2484, 2466, 2466, 2466, 2466, 2466, 2448, 2448, 2448, 2448, 2448, 2448, 2431, 2431, 2431, 2431, 2414, 2414, 2431, 2431, 0, 0, 0, 2102, 2102, 2102, 2102, 2102, 2102, 2102, 2102, 2102, 2102, 2102, 2115, 0, 0, 0, 0, 0, 0, 0, 0, 0, 0, 0, 0, 0, 0, 0, 0, 0, 0, 0, 0, 0, 0, 0, 0, 0, 0, 0, 0, 0, 0, 0, 0, 0, 0, 0, 0, 0, 0, 0, 0, 0, 0, 0, 0, 0, 0, 0, 0, 1981, 1969, 1969, 1958, 1958, 1958, 1958, 1925, 0, 1958, 1947, 1981, 0, 0, 0, 0, 1969, 1936, 1925, 1925, 1925, 1925, 1925, 1925, 1925, 1925, 1925, 1925, 1925, 1925, 1914, 1893, 1893, 1893, 1893, 1882, 0, 0, 0, 0, 0, 0,
       4518, 4518, 4518, 4518, 4518, 4518, 4518, 4518, 4518, 4518, 4578, 4578, 4578, 4641, 4641, 4641, 4641, 4641, 4641, 4641, 4641, 4641, 4641, 4641, 4641, 0, 0, 0, 0, 4136, 4086, 4038, 4038, 4038, 4038, 4038, 4038, 4038, 3991, 3991, 3991, 3991, 3991, 3991, 3991, 3991, 3991, 3945, 3945, 3945, 3945, 3900, 3900, 3900, 3900, 3900, 3900, 3900, 3900, 3900, 3900, 3900, 3900, 3900, 3900, 3900, 3900, 3900, 3900, 3900, 3900, 3900, 3945, 3945, 3945, 3991, 3991, 3991, 3945, 3991, 3991, 3991, 3991, 3991, 3991, 3991, 3991, 4038, 4038, 4038, 4038, 4038, 4038, 4038, 4038, 4038, 4038, 4038, 4038, 4038, 4038, 4038, 4038, 4038, 4038, 4038, 4038, 4038, 4038, 4038, 4038, 4038, 4038, 4038, 4038, 4038, 4038, 4038, 4038, 4038, 4038, 3991, 3991, 3991, 3991, 3991, 3991, 3945, 3945, 3945, 3900, 3900, 3900, 3900, 3856, 3856, 3856, 3856, 3856, 3813, 3813, 3813, 3813, 3813, 3813, 3813, 3813, 3813, 3813, 3813, 3813, 3813, 3813, 3771, 3771, 3771, 3771, 3730, 3730, 3730, 3730, 0, 0, 0, 0, 0, 0, 0, 0, 0, 0, 0, 0, 0, 0, 0, 0, 0, 0, 0, 0, 0, 0, 0, 0, 0, 0, 0, 0, 0, 0, 0, 0, 0, 0, 0, 0, 0, 0, 0, 0, 0, 0, 0, 0, 0, 0, 0, 0, 0, 0, 0, 0, 0, 0, 0, 0, 0, 0, 0, 0, 0, 0, 0, 0, 0, 0, 0, 0, 0, 0, 0, 0, 0, 0, 0, 0, 0, 0, 0, 0, 0, 0, 0, 0, 0, 0, 0, 0, 0, 0, 0, 0, 0, 0, 0, 0, 0, 3090, 3090, 3090, 3118, 3118, 3118, 3118, 3090, 3090, 3090, 3090, 3090, 3062, 3062, 3062, 3035, 3035, 3035, 3035, 3035, 3008, 3008, 3008, 3008, 3008, 3008, 3008, 2982, 2982, 2982, 2982, 2982, 2982, 2956, 2956, 2956, 2931, 2931, 2931, 2931, 2931, 2906, 2906, 2906, 2906, 2906, 2882, 2882, 2882, 2882, 2882, 2882, 2882, 2858, 2858, 2858, 2858, 2858, 2858, 2858, 2858, 2858, 2858, 2834, 2834, 2834, 2834, 2834, 2811, 2811, 2811, 2811, 2788, 2788, 2788, 2788, 2788, 2788, 2788, 2788, 2765, 2765, 2765, 2765, 2743, 2743, 2743, 2743, 2743, 2721, 2721, 2721, 2721, 2700, 2700, 2700, 2700, 2700, 2700, 2700, 2700, 2700, 2700, 2700, 2679, 2679, 2679, 2658, 2658, 2658, 2658, 2658, 2637, 2637, 2637, 2637, 2637, 2637, 2617, 2617, 2617, 2597, 2597, 2597, 2597, 2597, 2578, 2578, 2578, 2578, 2578, 2578, 2558, 2558, 2558, 2558, 2558, 2558, 2558, 2539, 2539, 2539, 2539, 2539, 2521, 2521, 2521, 2521, 2521, 2521, 2502, 2502, 2502, 2502, 2502, 2502, 2502, 2502, 2484, 2484, 2484, 2484, 2484, 2466, 2466, 2466, 2466, 2448, 2448, 2448, 2448, 2448, 2448, 2431, 2431, 2431, 2431, 2414, 2414, 2431, 2431, 0, 0, 2115, 2102, 2102, 2102, 2102, 2102, 2089, 2102, 2102, 2142, 0, 0, 0, 0, 0, 0, 0, 0, 0, 0, 0, 0, 0, 0, 0, 0, 0, 0, 0, 0, 0, 0, 0, 0, 0, 0, 0, 0, 0, 0, 0, 0, 0, 0, 0, 0, 0, 0, 0, 0, 0, 0, 0, 0, 0, 0, 0, 0, 0, 0, 0, 1992, 1969, 1969, 1969, 1969, 1969, 1969, 1958, 1936, 1958, 1958, 1958, 1958, 1936, 0, 0, 1936, 1936, 1925, 1925, 1925, 1925, 1925, 1925, 1925, 1925, 1925, 1925, 1914, 1914, 1903, 1893, 1893, 1893, 1903, 1893, 0, 0, 0, 0, 0, 0,
       4518, 4518, 4518, 4518, 4518, 4518, 4518, 4518, 4518, 4518, 4518, 4578, 4578, 4578, 4641, 4641, 4641, 4641, 4641, 4641, 4641, 4641, 4641, 4641, 4518, 0, 0, 4238, 4186, 4136, 4086, 4038, 4038, 4038, 4038, 4038, 4038, 4038, 3991, 3991, 3991, 3991, 3991, 3991, 3991, 3991, 3945, 3945, 3945, 3900, 3900, 3900, 3900, 3900, 3900, 3900, 3900, 3900, 3900, 3900, 3900, 3900, 3900, 3900, 3900, 3900, 3900, 3900, 3900, 3900, 3900, 3900, 3945, 3945, 3945, 3945, 3945, 3945, 3945, 3991, 3991, 3991, 3991, 3991, 3991, 3991, 4038, 4038, 4038, 4038, 4038, 4038, 4038, 4038, 4038, 4038, 4038, 4038, 4038, 4038, 4038, 4038, 4038, 4038, 4038, 4038, 4038, 4038, 4038, 4038, 4038, 4038, 4038, 4038, 4038, 4038, 4038, 4038, 4038, 4038, 4038, 3991, 3991, 3991, 3991, 3991, 3991, 3945, 3945, 3945, 3900, 3900, 3900, 3900, 3856, 3856, 3856, 3856, 3856, 3856, 3813, 3813, 3813, 3813, 3813, 3813, 3813, 3813, 3813, 3813, 3813, 3813, 3813, 3813, 3771, 3771, 3771, 3730, 3730, 3730, 0, 0, 0, 0, 0, 0, 0, 0, 0, 0, 0, 0, 0, 0, 0, 0, 0, 0, 0, 0, 0, 0, 0, 0, 0, 0, 0, 0, 0, 0, 0, 0, 0, 0, 0, 0, 0, 0, 0, 0, 0, 0, 0, 0, 0, 0, 0, 0, 0, 0, 0, 0, 0, 0, 0, 0, 0, 0, 0, 0, 0, 0, 0, 0, 0, 0, 0, 0, 0, 0, 0, 0, 0, 0, 0, 0, 0, 0, 0, 0, 0, 0, 0, 0, 0, 0, 0, 0, 0, 0, 0, 0, 0, 0, 0, 0, 0, 0, 3090, 3090, 3090, 3090, 3118, 3118, 3118, 3090, 3090, 3090, 3090, 3090, 3062, 3062, 3062, 3035, 3035, 3035, 3035, 3008, 3008, 3008, 3008, 3008, 3008, 3008, 3008, 3008, 2982, 2982, 2982, 2982, 2982, 2956, 2956, 2956, 2931, 2931, 2931, 2931, 2931, 2906, 2906, 2906, 2906, 2906, 2882, 2882, 2882, 2882, 2882, 2882, 2858, 2858, 2858, 2858, 2858, 2858, 2858, 2858, 2858, 2858, 2858, 2834, 2834, 2834, 2834, 2834, 2811, 2811, 2811, 2811, 2788, 2788, 2788, 2788, 2788, 2765, 2765, 2765, 2765, 2765, 2765, 2743, 2743, 2743, 2743, 2743, 2743, 2721, 2721, 2721, 2721, 2700, 2700, 2700, 2700, 2700, 2700, 2700, 2700, 2700, 2700, 2700, 2679, 2679, 2679, 2658, 2658, 2658, 2658, 2658, 2637, 2637, 2637, 2637, 2637, 2637, 2617, 2617, 2617, 2597, 2597, 2597, 2597, 2597, 2578, 2578, 2578, 2578, 2578, 2578, 2578, 2578, 2558, 2558, 2558, 2558, 2558, 2558, 2539, 2539, 2539, 2539, 2521, 2521, 2521, 2521, 2521, 2521, 2521, 2502, 2502, 2502, 2502, 2502, 2502, 2502, 2484, 2484, 2484, 2484, 2484, 2466, 2466, 2466, 2466, 2448, 2448, 2448, 2448, 2448, 2448, 2431, 2431, 2431, 2431, 2431, 2414, 2431, 2431, 0, 0, 2155, 2102, 2102, 2102, 2102, 2102, 2102, 0, 0, 0, 0, 0, 0, 0, 0, 0, 0, 0, 0, 0, 0, 0, 0, 0, 0, 0, 0, 0, 0, 0, 0, 0, 0, 0, 0, 0, 0, 0, 0, 0, 0, 0, 0, 0, 0, 0, 0, 0, 0, 0, 0, 0, 0, 0, 0, 0, 0, 0, 0, 0, 0, 1992, 0, 0, 1969, 1969, 1969, 1969, 1969, 1969, 1958, 1958, 1969, 1958, 1882, 0, 0, 1925, 1925, 1925, 1925, 1925, 1925, 1925, 1925, 1925, 1925, 1925, 1925, 1925, 1914, 1903, 1903, 1903, 1903, 1914, 1893, 0, 0, 0, 0, 0, 0,
       4518, 4518, 4518, 4518, 4518, 4518, 4518, 4518, 4518, 4518, 4518, 4518, 4578, 4578, 4578, 4578, 4578, 4578, 4578, 4578, 4578, 4578, 4578, 4578, 4459, 0, 0, 4186, 4186, 4136, 4086, 4038, 4038, 4038, 4038, 4038, 4038, 3991, 3991, 3991, 3991, 3991, 3991, 3991, 3991, 3945, 3945, 3945, 3900, 3900, 3900, 3856, 3856, 3856, 3856, 3900, 3900, 3900, 3900, 3900, 3900, 3900, 3900, 3900, 3900, 3900, 3900, 3900, 3900, 3900, 3900, 3900, 3945, 3945, 3945, 3945, 3945, 3945, 3945, 3991, 3991, 3991, 3991, 3991, 3991, 3991, 4038, 4038, 4038, 4038, 4038, 4038, 4038, 4038, 4038, 4038, 4038, 4038, 4038, 4038, 4038, 4038, 4038, 4038, 4038, 4038, 4038, 4038, 4038, 4038, 4038, 4038, 4038, 4038, 4038, 4038, 4038, 4038, 4038, 4038, 4038, 3991, 3991, 3991, 3991, 3991, 3991, 3945, 3945, 3945, 3900, 3900, 3900, 3900, 3856, 3856, 3856, 3856, 3856, 3856, 3813, 3813, 3813, 3813, 3813, 3813, 3813, 3813, 3813, 3813, 3813, 3813, 3813, 3813, 3771, 3771, 3771, 3730, 3730, 3771, 0, 0, 0, 0, 0, 0, 0, 0, 0, 0, 0, 0, 0, 0, 0, 0, 0, 0, 0, 0, 0, 0, 0, 0, 0, 0, 0, 0, 0, 0, 0, 0, 0, 0, 0, 0, 0, 0, 0, 0, 0, 0, 0, 0, 0, 0, 0, 0, 0, 0, 0, 0, 0, 0, 0, 0, 0, 0, 0, 0, 0, 0, 0, 0, 0, 0, 0, 0, 0, 0, 0, 0, 0, 0, 0, 0, 0, 0, 0, 0, 0, 0, 0, 0, 0, 0, 0, 0, 0, 0, 0, 0, 0, 0, 0, 0, 0, 0, 3090, 3090, 3090, 3118, 3118, 3118, 3118, 3090, 3090, 3090, 3090, 3090, 3062, 3062, 3062, 3035, 3035, 3035, 3035, 3035, 3008, 3008, 3008, 3008, 3008, 3008, 3008, 3008, 2982, 2982, 2982, 2982, 2956, 2956, 2956, 2956, 2956, 2931, 2931, 2931, 2931, 2931, 2906, 2906, 2906, 2906, 2882, 2882, 2882, 2882, 2882, 2882, 2858, 2858, 2858, 2858, 2858, 2858, 2858, 2858, 2858, 2858, 2834, 2834, 2834, 2834, 2834, 2811, 2811, 2811, 2811, 2811, 2788, 2788, 2788, 2788, 2788, 2788, 2765, 2765, 2765, 2765, 2765, 2743, 2743, 2743, 2743, 2743, 2743, 2721, 2721, 2721, 2721, 2700, 2700, 2700, 2700, 2700, 2700, 2700, 2700, 2700, 2700, 2700, 2679, 2679, 2679, 2658, 2658, 2658, 2658, 2658, 2637, 2637, 2637, 2637, 2637, 2637, 2617, 2617, 2617, 2617, 2597, 2597, 2597, 2597, 2597, 2578, 2578, 2578, 2578, 2578, 2578, 2578, 2558, 2558, 2558, 2558, 2558, 2558, 2539, 2539, 2539, 2539, 2521, 2521, 2521, 2521, 2521, 2521, 2521, 2502, 2502, 2502, 2502, 2502, 2502, 2502, 2484, 2484, 2484, 2484, 2484, 2466, 2466, 2466, 2466, 2448, 2448, 2448, 2448, 2448, 2448, 2431, 2431, 2431, 2431, 2431, 2414, 2431, 2431, 2431, 0, 0, 2102, 2102, 2102, 2102, 2102, 2102, 0, 0, 0, 0, 0, 0, 0, 0, 0, 0, 0, 0, 0, 0, 0, 0, 0, 0, 0, 0, 0, 0, 0, 0, 0, 0, 0, 0, 0, 0, 0, 0, 0, 0, 0, 0, 0, 0, 0, 0, 0, 0, 0, 0, 0, 0, 0, 0, 0, 0, 0, 0, 0, 0, 1981, 0, 0, 1969, 1969, 1969, 1969, 1969, 1969, 1958, 1969, 1969, 1947, 1925, 1947, 1936, 1936, 1936, 1936, 1936, 1936, 1936, 1893, 1882, 1925, 1925, 1925, 1925, 1925, 1914, 1914, 1914, 1903, 1903, 1925, 1903, 0, 0, 0, 0, 0, 0,
       4518, 4518, 4518, 4518, 4518, 4518, 4518, 4518, 4518, 4518, 4518, 4518, 4518, 4518, 4518, 4518, 4518, 4518, 4518, 4518, 4518, 4518, 4518, 0, 0, 0, 0, 0, 0, 4136, 4086, 4038, 4038, 4038, 4038, 4038, 3991, 3991, 3991, 3991, 3991, 3991, 3991, 3991, 3945, 3945, 3945, 3945, 3900, 3900, 3900, 3856, 3856, 3856, 3856, 3856, 3900, 3900, 3900, 3900, 3900, 3900, 3900, 3900, 3900, 3900, 3900, 3900, 3900, 3900, 3900, 3900, 3945, 3945, 3945, 3945, 3945, 3945, 3945, 3991, 3991, 3991, 3991, 3991, 3991, 3991, 3991, 3991, 4038, 4038, 4038, 4038, 4038, 4038, 4038, 4038, 4038, 4038, 4038, 4038, 4038, 4038, 4038, 4038, 4038, 4038, 4038, 4038, 4038, 4038, 4038, 4038, 4038, 4038, 4038, 4038, 4038, 4038, 4038, 4038, 4038, 4038, 3991, 3991, 3991, 3991, 3991, 3991, 3945, 3945, 3900, 3900, 3900, 3900, 3856, 3856, 3856, 3856, 3856, 3813, 3813, 3813, 3813, 3813, 3813, 3813, 3813, 3813, 3813, 3813, 3771, 3771, 3813, 3771, 3771, 3771, 3730, 3730, 3730, 3730, 3730, 0, 0, 0, 0, 0, 0, 0, 0, 0, 0, 0, 0, 0, 0, 0, 0, 0, 0, 0, 0, 0, 0, 0, 0, 0, 0, 0, 0, 0, 0, 0, 0, 0, 0, 0, 0, 0, 0, 0, 0, 0, 0, 0, 0, 0, 0, 0, 0, 0, 0, 0, 0, 0, 0, 0, 0, 0, 0, 0, 0, 0, 0, 0, 0, 0, 0, 0, 0, 0, 0, 0, 0, 0, 0, 0, 0, 0, 0, 0, 0, 0, 0, 0, 0, 0, 0, 0, 0, 0, 0, 0, 0, 0, 0, 0, 0, 0, 3090, 3090, 3090, 3118, 3118, 3118, 3118, 3090, 3090, 3090, 3090, 3090, 3062, 3062, 3062, 3035, 3035, 3035, 3035, 3035, 3035, 3008, 3008, 3008, 3008, 3008, 3008, 3008, 2982, 2982, 2982, 2982, 2956, 2956, 2956, 2956, 2931, 2931, 2931, 2931, 2931, 2931, 2906, 2906, 2906, 2906, 2882, 2882, 2882, 2882, 2882, 2882, 2882, 2858, 2858, 2858, 2858, 2858, 2858, 2858, 2858, 2858, 2834, 2834, 2834, 2834, 2834, 2811, 2811, 2811, 2811, 2811, 2788, 2788, 2788, 2788, 2788, 2788, 2765, 2765, 2765, 2765, 2765, 2743, 2743, 2743, 2743, 2743, 2721, 2721, 2721, 2721, 2721, 2700, 2700, 2700, 2700, 2700, 2700, 2700, 2700, 2700, 2679, 2679, 2679, 2679, 2658, 2658, 2658, 2658, 2658, 2658, 2637, 2637, 2637, 2637, 2637, 2637, 2617, 2617, 2617, 2617, 2617, 2597, 2597, 2597, 2597, 2597, 2578, 2578, 2578, 2578, 2578, 2578, 2558, 2558, 2558, 2558, 2558, 2558, 2539, 2539, 2539, 2539, 2539, 2521, 2521, 2521, 2521, 2521, 2521, 2502, 2502, 2502, 2502, 2502, 2502, 2502, 2484, 2484, 2484, 2484, 2484, 2466, 2466, 2466, 2466, 2448, 2448, 2448, 2448, 2448, 2431, 2431, 2431, 2431, 2431, 2431, 2414, 2431, 2431, 2431, 0, 0, 2102, 2102, 2115, 2115, 2115, 2102, 2102, 2129, 0, 0, 0, 0, 0, 0, 0, 0, 0, 0, 0, 0, 0, 0, 0, 0, 0, 0, 0, 0, 0, 0, 0, 0, 0, 0, 0, 0, 0, 0, 0, 0, 0, 0, 0, 0, 0, 0, 0, 0, 0, 0, 0, 0, 0, 0, 0, 0, 0, 0, 1992, 1992, 1981, 1981, 1969, 1958, 1958, 1969, 1969, 1969, 1969, 0, 0, 0, 0, 0, 0, 0, 0, 0, 1947, 1936, 1936, 1936, 1925, 1925, 1925, 1925, 1925, 1925, 1925, 1925, 1925, 1914, 1914, 1914, 1936, 1903, 0, 0, 0, 0, 0, 0,
       4518, 4518, 4518, 4518, 4518, 4518, 4518, 4518, 4518, 4518, 4518, 4459, 4459, 4459, 4518, 4518, 4459, 4518, 4518, 4459, 4518, 4518, 4518, 0, 0, 0, 0, 0, 0, 4086, 4038, 4038, 4038, 4038, 4038, 4038, 3991, 3991, 3991, 3991, 3991, 3945, 3945, 3945, 3945, 3945, 3900, 3900, 3900, 3900, 3900, 3856, 3856, 3856, 3856, 3856, 3856, 3856, 3900, 3900, 3900, 3900, 3900, 3900, 3900, 3900, 3900, 3900, 3900, 3900, 3900, 3900, 3900, 3945, 3945, 3945, 3945, 3945, 3945, 3991, 3991, 3991, 3991, 3991, 3991, 3991, 3991, 3991, 4038, 4038, 4038, 4038, 4038, 4038, 4038, 4038, 4038, 4038, 4038, 4038, 4038, 4038, 4038, 4038, 4038, 4038, 4038, 4038, 4038, 4038, 4038, 4038, 4038, 4038, 4038, 4038, 4038, 4038, 4038, 4038, 4038, 3991, 3991, 3991, 3991, 3991, 3991, 3945, 3945, 3945, 3945, 3900, 3900, 3900, 3856, 3856, 3856, 3856, 3856, 3856, 3813, 3813, 3813, 3813, 3813, 3813, 3813, 3813, 3813, 3813, 3813, 3771, 3771, 3771, 3771, 3730, 3730, 3730, 3730, 3690, 3690, 3690, 3690, 0, 0, 0, 0, 0, 0, 0, 0, 0, 0, 0, 0, 0, 0, 0, 0, 0, 0, 0, 0, 0, 0, 0, 0, 0, 0, 0, 0, 0, 0, 0, 0, 0, 0, 0, 0, 0, 0, 0, 0, 0, 0, 0, 0, 0, 0, 0, 0, 0, 0, 0, 0, 0, 0, 0, 0, 0, 0, 0, 0, 0, 0, 0, 0, 0, 0, 0, 0, 0, 0, 0, 0, 0, 0, 0, 0, 0, 0, 0, 0, 0, 0, 0, 0, 0, 0, 0, 0, 0, 0, 0, 0, 0, 0, 0, 0, 3090, 3090, 3090, 3118, 3118, 3118, 3118, 3090, 3090, 3090, 3090, 3062, 3062, 3062, 3035, 3035, 3035, 3035, 3035, 3035, 3008, 3008, 3008, 3008, 3008, 3008, 3008, 2982, 2982, 2982, 2982, 2956, 2956, 2956, 2956, 2931, 2931, 2931, 2931, 2931, 2906, 2906, 2906, 2906, 2906, 2882, 2882, 2882, 2882, 2882, 2882, 2882, 2882, 2858, 2858, 2858, 2858, 2858, 2858, 2858, 2834, 2834, 2834, 2834, 2811, 2811, 2811, 2811, 2811, 2811, 2811, 2788, 2788, 2788, 2788, 2788, 2788, 2765, 2765, 2765, 2765, 2765, 2743, 2743, 2743, 2743, 2743, 2721, 2721, 2721, 2721, 2700, 2700, 2700, 2700, 2700, 2700, 2700, 2700, 2700, 2700, 2679, 2679, 2679, 2679, 2658, 2658, 2658, 2658, 2658, 2658, 2637, 2637, 2637, 2637, 2637, 2637, 2637, 2617, 2617, 2617, 2617, 2597, 2597, 2597, 2597, 2597, 2578, 2578, 2578, 2578, 2578, 2578, 2558, 2558, 2558, 2558, 2558, 2558, 2539, 2539, 2539, 2539, 2539, 2539, 2521, 2521, 2521, 2521, 2502, 2502, 2502, 2502, 2502, 2502, 2502, 2502, 2484, 2484, 2484, 2484, 2484, 2466, 2466, 2466, 2466, 2448, 2448, 2448, 2448, 2448, 2431, 2431, 2431, 2431, 2431, 2414, 2414, 2431, 2431, 2431, 0, 0, 2102, 2102, 2102, 2102, 2115, 2102, 2102, 2102, 2102, 0, 0, 0, 0, 0, 0, 0, 0, 0, 0, 0, 0, 0, 0, 0, 0, 0, 0, 0, 0, 0, 0, 0, 0, 0, 0, 0, 0, 0, 0, 0, 0, 0, 0, 0, 0, 0, 0, 0, 0, 0, 0, 0, 0, 0, 0, 0, 0, 0, 1992, 1992, 1981, 1981, 0, 0, 0, 0, 1969, 1969, 1969, 0, 0, 0, 0, 0, 0, 0, 0, 0, 1947, 1947, 1936, 1936, 1936, 1925, 1925, 1925, 1925, 1925, 1925, 1936, 0, 1914, 1914, 0, 1969, 1893, 0, 0, 0, 0, 0, 0,
       4518, 4518, 4518, 4518, 4518, 4518, 4459, 4459, 4459, 4459, 4459, 4459, 4459, 4459, 4459, 4459, 4459, 4518, 4459, 4459, 4459, 4459, 4459, 0, 0, 0, 0, 0, 0, 4086, 4038, 4038, 4038, 4038, 3991, 3991, 3991, 3991, 3991, 3991, 3991, 3945, 3945, 3945, 3900, 3900, 3900, 3900, 3900, 3856, 3856, 3856, 3856, 3856, 3856, 3856, 3856, 3856, 3900, 3900, 3900, 3900, 3900, 3900, 3900, 3900, 3900, 3900, 3900, 3900, 3900, 3900, 3900, 3945, 3945, 3945, 3945, 3945, 3945, 3991, 3991, 3991, 3991, 3991, 3991, 3991, 3991, 3991, 4038, 4038, 4038, 4038, 4038, 4038, 4038, 4038, 4038, 4038, 4038, 4038, 4038, 4038, 4038, 4038, 4038, 4038, 4038, 4038, 4038, 4038, 4038, 4038, 4038, 4038, 4038, 4038, 4038, 4038, 4038, 4038, 4038, 4038, 4038, 3991, 3991, 3991, 3991, 3945, 3945, 3945, 3945, 3900, 3900, 3900, 3856, 3856, 3856, 3856, 3856, 3856, 3813, 3813, 3813, 3813, 3813, 3813, 3813, 3813, 3813, 3813, 3813, 3771, 3771, 3771, 3771, 3730, 3730, 3730, 3730, 3690, 3690, 3690, 3690, 0, 0, 0, 0, 0, 0, 0, 0, 0, 0, 0, 0, 0, 0, 0, 0, 0, 0, 0, 0, 0, 0, 0, 0, 0, 0, 0, 0, 0, 0, 0, 0, 0, 0, 0, 0, 0, 0, 0, 0, 0, 0, 0, 0, 0, 0, 0, 0, 0, 0, 0, 0, 0, 0, 0, 0, 0, 0, 0, 0, 0, 0, 0, 0, 0, 0, 0, 0, 0, 0, 0, 0, 0, 0, 0, 0, 0, 0, 0, 0, 0, 0, 0, 0, 0, 0, 0, 0, 0, 0, 0, 0, 0, 0, 0, 0, 3090, 3090, 3090, 3118, 3118, 3118, 3118, 3090, 3090, 3090, 3062, 3062, 3062, 3035, 3035, 3035, 3035, 3035, 3035, 3035, 3035, 3008, 3008, 3008, 3008, 3008, 3008, 2982, 2982, 2982, 2982, 2956, 2956, 2956, 2956, 2931, 2931, 2931, 2931, 2931, 2906, 2906, 2906, 2906, 2906, 2882, 2882, 2882, 2882, 2882, 2882, 2882, 2882, 2858, 2858, 2858, 2858, 2858, 2858, 2858, 2834, 2834, 2834, 2834, 2834, 2811, 2811, 2811, 2811, 2811, 2811, 2788, 2788, 2788, 2788, 2788, 2788, 2765, 2765, 2765, 2765, 2765, 2743, 2743, 2743, 2743, 2721, 2721, 2721, 2721, 2721, 2700, 2700, 2700, 2700, 2700, 2700, 2700, 2700, 2700, 2679, 2679, 2679, 2679, 2679, 2658, 2658, 2658, 2658, 2658, 2658, 2637, 2637, 2637, 2637, 2637, 2637, 2637, 2617, 2617, 2617, 2617, 2597, 2597, 2597, 2597, 2597, 2578, 2578, 2578, 2578, 2578, 2578, 2578, 2578, 2558, 2558, 2558, 2558, 2558, 2539, 2539, 2539, 2539, 2539, 2539, 2521, 2521, 2521, 2521, 2502, 2502, 2502, 2502, 2502, 2502, 2502, 2484, 2484, 2484, 2484, 2484, 2466, 2466, 2466, 2466, 2448, 2448, 2448, 2448, 2448, 2448, 2431, 2431, 2431, 2431, 2431, 2431, 2431, 2431, 2431, 2380, 0, 2089, 2089, 2102, 2102, 2102, 2102, 2102, 2089, 2089, 0, 0, 0, 0, 0, 0, 0, 0, 0, 0, 0, 0, 0, 0, 0, 0, 0, 0, 0, 0, 0, 0, 0, 0, 0, 0, 0, 0, 0, 0, 0, 0, 0, 0, 0, 0, 0, 0, 0, 0, 0, 0, 0, 0, 0, 0, 0, 0, 0, 0, 1992, 1992, 0, 0, 0, 0, 0, 1981, 1981, 1969, 1969, 0, 0, 0, 0, 0, 0, 1958, 1958, 1958, 1947, 1947, 1947, 1936, 1936, 1936, 1936, 1936, 1925, 1925, 0, 0, 1925, 1925, 0, 0, 1872, 0, 0, 0, 0, 0, 0,
       4459, 4459, 4459, 4459, 4459, 4459, 4459, 4459, 4459, 4459, 4459, 4459, 4459, 4459, 4459, 4459, 4459, 4459, 4459, 4459, 4459, 4459, 4402, 0, 0, 0, 0, 4238, 4238, 4038, 3991, 3991, 3991, 3991, 3991, 3991, 3991, 3991, 3991, 3991, 3991, 3945, 3945, 3945, 3900, 3900, 3900, 3856, 3856, 3856, 3856, 3856, 3856, 3856, 3856, 3856, 3856, 3856, 3856, 3856, 3900, 3900, 3900, 3900, 3856, 3900, 3900, 3900, 3900, 3900, 3900, 3900, 3900, 3945, 3945, 3945, 3945, 3945, 3945, 3991, 3991, 3991, 3991, 3991, 3991, 3991, 3991, 3991, 4038, 4038, 4038, 4038, 4038, 4038, 4038, 4038, 4038, 4038, 4038, 4038, 4038, 3991, 4038, 4038, 4038, 4038, 4038, 4038, 4038, 4038, 4038, 4038, 4038, 4038, 4038, 4038, 4038, 4038, 4038, 4038, 4038, 4038, 3991, 3991, 3991, 3991, 3945, 3945, 3945, 3945, 3900, 3900, 3900, 3900, 3856, 3856, 3856, 3856, 3856, 3856, 3813, 3813, 3813, 3813, 3813, 3813, 3813, 3813, 3813, 3813, 3813, 3771, 3771, 3771, 3771, 3730, 3730, 3730, 3730, 3730, 3730, 3730, 0, 0, 0, 0, 0, 0, 0, 0, 0, 0, 0, 0, 0, 0, 0, 0, 0, 0, 0, 0, 0, 0, 0, 0, 0, 0, 0, 0, 0, 0, 0, 0, 0, 0, 0, 0, 0, 0, 0, 0, 0, 0, 0, 0, 0, 0, 0, 0, 0, 0, 0, 0, 0, 0, 0, 0, 0, 0, 0, 0, 0, 0, 0, 0, 0, 0, 0, 0, 0, 0, 0, 0, 0, 0, 0, 0, 0, 0, 0, 0, 0, 0, 0, 0, 0, 0, 0, 0, 0, 0, 0, 0, 0, 0, 0, 0, 0, 3090, 3090, 3090, 3118, 3118, 3118, 3090, 3090, 3090, 3090, 3062, 3062, 3035, 3035, 3035, 3035, 3035, 3035, 3035, 3035, 3035, 3008, 3008, 3008, 3008, 3008, 3008, 2982, 2982, 2982, 2982, 2982, 2956, 2956, 2956, 2956, 2931, 2931, 2931, 2931, 2931, 2906, 2906, 2906, 2906, 2906, 2882, 2882, 2882, 2882, 2882, 2882, 2882, 2858, 2858, 2858, 2858, 2858, 2858, 2834, 2834, 2834, 2834, 2834, 2834, 2811, 2811, 2811, 2811, 2811, 2811, 2811, 2788, 2788, 2788, 2788, 2788, 2765, 2765, 2765, 2765, 2765, 2743, 2743, 2743, 2743, 2721, 2721, 2721, 2721, 2721, 2721, 2700, 2700, 2700, 2700, 2700, 2700, 2700, 2700, 2679, 2679, 2679, 2679, 2679, 2658, 2658, 2658, 2658, 2658, 2658, 2637, 2637, 2637, 2637, 2637, 2637, 2637, 2617, 2617, 2617, 2617, 2597, 2597, 2597, 2597, 2597, 2597, 2578, 2578, 2578, 2578, 2578, 2578, 2578, 2558, 2558, 2558, 2558, 2558, 2539, 2539, 2539, 2539, 2539, 2539, 2521, 2521, 2521, 2521, 2502, 2502, 2502, 2502, 2502, 2502, 2502, 2484, 2484, 2484, 2484, 2484, 2466, 2466, 2466, 2466, 2448, 2448, 2448, 2448, 2448, 2448, 2431, 2431, 2431, 2431, 2431, 2431, 2431, 2431, 2431, 2414, 0, 2089, 0, 0, 0, 2102, 2102, 2102, 2089, 0, 0, 0, 0, 0, 0, 0, 0, 0, 0, 0, 0, 0, 0, 0, 0, 0, 0, 0, 0, 0, 0, 0, 0, 0, 0, 0, 0, 0, 0, 0, 0, 0, 0, 0, 0, 0, 0, 0, 0, 0, 0, 0, 0, 0, 0, 0, 0, 0, 0, 0, 1992, 1992, 0, 0, 0, 0, 0, 1981, 1969, 1969, 1969, 0, 0, 0, 0, 0, 0, 1958, 1958, 1958, 1947, 1936, 1936, 1936, 1936, 1936, 1936, 1936, 1925, 1925, 0, 0, 1925, 1914, 1925, 1936, 1914, 0, 0, 0, 0, 0, 0,
       4459, 4459, 4459, 4459, 4459, 4459, 4459, 4459, 4459, 4459, 4459, 4459, 4402, 4402, 4402, 4402, 4402, 4402, 4402, 4402, 4402, 4346, 4291, 0, 0, 0, 0, 4086, 4038, 4038, 3991, 3991, 3991, 3991, 3991, 3991, 3991, 3991, 3991, 3991, 3945, 3945, 3945, 3945, 3900, 3900, 3856, 3856, 3856, 3856, 3856, 3856, 3856, 3856, 3856, 3856, 3856, 3856, 3856, 3856, 3856, 3856, 3856, 3856, 3856, 3856, 3856, 3900, 3900, 3900, 3900, 3900, 3900, 3945, 3945, 3945, 3945, 3945, 3945, 3991, 3991, 3991, 3991, 3991, 3991, 3991, 3991, 3991, 4038, 4038, 4038, 3991, 4038, 4038, 3991, 4038, 4038, 3991, 3991, 3991, 3991, 3991, 4038, 4038, 4038, 4038, 4038, 4038, 4038, 4038, 4038, 4038, 4038, 4038, 4038, 4038, 4038, 4038, 4038, 4038, 4038, 3991, 3991, 3991, 3991, 3991, 3945, 3945, 3945, 3900, 3900, 3900, 3900, 3900, 3856, 3856, 3856, 3856, 3856, 3856, 3813, 3813, 3813, 3813, 3813, 3813, 3813, 3813, 3813, 3813, 3771, 3771, 3771, 3771, 3771, 3730, 3730, 3730, 3690, 3730, 3730, 3730, 0, 0, 0, 0, 0, 0, 0, 0, 0, 0, 0, 0, 0, 0, 0, 0, 0, 0, 0, 0, 0, 0, 0, 0, 0, 0, 0, 0, 0, 0, 0, 0, 0, 0, 0, 0, 0, 0, 0, 0, 0, 0, 0, 0, 0, 0, 0, 0, 0, 0, 0, 0, 0, 0, 0, 0, 0, 0, 0, 0, 0, 0, 0, 0, 0, 0, 0, 0, 0, 0, 0, 0, 0, 0, 0, 0, 0, 0, 0, 0, 0, 0, 0, 0, 0, 0, 0, 0, 0, 0, 0, 0, 0, 0, 0, 0, 0, 3090, 3090, 3090, 3090, 3118, 3118, 3090, 3090, 3090, 3090, 3062, 3062, 3062, 3062, 3035, 3035, 3035, 3035, 3035, 3035, 3035, 3008, 3008, 3008, 3008, 3008, 3008, 2982, 2982, 2982, 2982, 2982, 2956, 2956, 2956, 2931, 2931, 2931, 2931, 2931, 2931, 2906, 2906, 2906, 2906, 2906, 2906, 2906, 2882, 2882, 2882, 2882, 2882, 2858, 2858, 2858, 2858, 2858, 2834, 2834, 2834, 2834, 2834, 2834, 2811, 2811, 2811, 2811, 2811, 2811, 2811, 2811, 2788, 2788, 2788, 2788, 2788, 2765, 2765, 2765, 2765, 2765, 2743, 2743, 2743, 2743, 2721, 2721, 2721, 2721, 2721, 2721, 2700, 2700, 2700, 2700, 2700, 2700, 2700, 2700, 2679, 2679, 2679, 2679, 2658, 2658, 2658, 2658, 2658, 2658, 2637, 2637, 2637, 2637, 2637, 2637, 2637, 2637, 2617, 2617, 2617, 2617, 2597, 2597, 2597, 2597, 2597, 2597, 2578, 2578, 2578, 2578, 2578, 2578, 2578, 2558, 2558, 2558, 2558, 2558, 2539, 2539, 2539, 2539, 2539, 2539, 2521, 2521, 2521, 2502, 2502, 2502, 2502, 2502, 2502, 2502, 2502, 2502, 2484, 2484, 2484, 2484, 2484, 2466, 2466, 2466, 2448, 2448, 2448, 2448, 2448, 2448, 2431, 2431, 2431, 2431, 2431, 2431, 2431, 2431, 2431, 2414, 0, 2077, 0, 0, 0, 2102, 2102, 2102, 2089, 0, 0, 0, 0, 0, 0, 0, 0, 0, 0, 0, 0, 0, 0, 0, 0, 0, 0, 0, 0, 0, 0, 0, 0, 0, 0, 0, 0, 0, 0, 0, 0, 0, 0, 0, 0, 0, 0, 0, 0, 0, 0, 0, 0, 0, 0, 0, 0, 0, 0, 0, 1981, 1981, 1981, 0, 0, 0, 0, 1981, 1969, 1969, 1969, 1969, 1969, 0, 0, 0, 1958, 1958, 0, 0, 0, 0, 1947, 1947, 1947, 1936, 1936, 1936, 0, 0, 0, 0, 1958, 1914, 1925, 1936, 1903, 0, 0, 0, 0, 0, 0,
       4459, 4459, 4459, 4459, 4459, 4459, 4459, 4459, 4459, 4459, 4402, 4402, 4402, 4346, 4346, 4346, 4291, 4291, 4291, 4291, 4238, 4238, 4186, 0, 0, 0, 4238, 4038, 3991, 3991, 3991, 3991, 3991, 3991, 3991, 3991, 3991, 3991, 3991, 3991, 3945, 3945, 3945, 3945, 3900, 3900, 3856, 3856, 3856, 3856, 3856, 3856, 3813, 3813, 3813, 3856, 3856, 3856, 3856, 3856, 3856, 3856, 3856, 3856, 3856, 3856, 3856, 3856, 3900, 3900, 3900, 3900, 3900, 3900, 3945, 3945, 3945, 3945, 3945, 3991, 3991, 3991, 3991, 3991, 3991, 3991, 3991, 3991, 3991, 3991, 3991, 4038, 4038, 4038, 4038, 4038, 4038, 3991, 3991, 3991, 3991, 3991, 3991, 3991, 4038, 4038, 4038, 4038, 4038, 4038, 4038, 4038, 4038, 4038, 4038, 4038, 4038, 4038, 4038, 4038, 4038, 3991, 3991, 3991, 3991, 3991, 3945, 3945, 3945, 3945, 3900, 3900, 3900, 3900, 3900, 3856, 3856, 3856, 3856, 3856, 3813, 3813, 3813, 3813, 3813, 3813, 3813, 3813, 3813, 3813, 3771, 3771, 3771, 3771, 3730, 3730, 3730, 3730, 3690, 3690, 3690, 3690, 0, 0, 0, 0, 0, 0, 0, 0, 0, 0, 0, 0, 0, 0, 0, 0, 0, 0, 0, 0, 0, 0, 0, 0, 0, 0, 0, 0, 0, 0, 0, 0, 0, 0, 0, 0, 0, 0, 0, 0, 0, 0, 0, 0, 0, 0, 0, 0, 0, 0, 0, 0, 0, 0, 0, 0, 0, 0, 0, 0, 0, 0, 0, 0, 0, 0, 0, 0, 0, 0, 0, 0, 0, 0, 0, 0, 0, 0, 0, 0, 0, 0, 0, 0, 0, 0, 0, 0, 0, 0, 0, 0, 0, 0, 0, 0, 0, 3090, 3090, 3090, 3090, 3118, 3118, 3090, 3090, 3090, 3090, 3062, 3062, 3062, 3062, 3035, 3035, 3035, 3035, 3035, 3035, 3035, 3035, 3008, 3008, 3008, 3008, 3008, 2982, 2982, 2982, 2982, 2982, 2956, 2956, 2956, 2931, 2931, 2931, 2931, 2931, 2931, 2906, 2906, 2906, 2906, 2906, 2906, 2906, 2882, 2882, 2882, 2882, 2882, 2882, 2858, 2858, 2858, 2834, 2834, 2834, 2834, 2834, 2834, 2834, 2811, 2811, 2811, 2811, 2811, 2811, 2811, 2811, 2788, 2788, 2788, 2788, 2788, 2765, 2765, 2765, 2765, 2743, 2743, 2743, 2743, 2743, 2721, 2721, 2721, 2721, 2721, 2721, 2700, 2700, 2700, 2700, 2700, 2700, 2700, 2679, 2679, 2679, 2679, 2679, 2658, 2658, 2658, 2658, 2658, 2658, 2658, 2637, 2637, 2637, 2637, 2637, 2637, 2637, 2617, 2617, 2617, 2617, 2597, 2597, 2597, 2597, 2597, 2597, 2578, 2578, 2578, 2578, 2578, 2578, 2578, 2578, 2558, 2558, 2558, 2558, 2539, 2539, 2539, 2539, 2539, 2539, 2521, 2521, 2521, 2502, 2502, 2502, 2502, 2502, 2502, 2502, 2502, 2502, 2502, 2484, 2484, 2484, 2484, 2466, 2466, 2466, 2466, 2448, 2448, 2448, 2448, 2448, 2431, 2431, 2431, 2431, 2431, 2431, 2431, 2431, 2431, 2414, 0, 0, 0, 0, 0, 2102, 2102, 2102, 2089, 0, 0, 0, 0, 0, 0, 0, 0, 0, 0, 0, 0, 0, 0, 0, 0, 0, 0, 0, 0, 0, 0, 0, 0, 0, 0, 0, 0, 0, 0, 0, 0, 0, 0, 0, 0, 0, 0, 0, 0, 0, 0, 0, 0, 0, 0, 0, 0, 0, 0, 0, 0, 1981, 0, 0, 0, 0, 0, 1981, 1969, 1969, 1958, 1969, 1969, 0, 0, 0, 0, 0, 0, 0, 0, 0, 1936, 1936, 1936, 1936, 1936, 1936, 0, 0, 0, 0, 0, 1914, 1925, 1936, 1903, 0, 0, 0, 0, 0, 0,
       4459, 4459, 4459, 4459, 4459, 4459, 4459, 4402, 4402, 4402, 4346, 4346, 4291, 4291, 4238, 4238, 4238, 4186, 4186, 4186, 4186, 4136, 4136, 4086, 4086, 4086, 4038, 4038, 3991, 3991, 3991, 3991, 3991, 3991, 3991, 3991, 3991, 3991, 3945, 3945, 3945, 3945, 3900, 3900, 3900, 3856, 3856, 3856, 3856, 3856, 3856, 3813, 3813, 3856, 3856, 3856, 3856, 3856, 3856, 3856, 3856, 3856, 3856, 3856, 3856, 3856, 3856, 3856, 3900, 3900, 3900, 3900, 3900, 3900, 3945, 3945, 3945, 3945, 3945, 3991, 3991, 3991, 3991, 3991, 3991, 3991, 3991, 3991, 3991, 3991, 3991, 4038, 4038, 4038, 4038, 4038, 4038, 3991, 3991, 3991, 3991, 3991, 4038, 4038, 4038, 4038, 4038, 4038, 4038, 4038, 4038, 4038, 4038, 4038, 4038, 4038, 4038, 4038, 4038, 4038, 4038, 3991, 3991, 3991, 3991, 3991, 3945, 3945, 3945, 3900, 3900, 3900, 3900, 3900, 3900, 3856, 3856, 3856, 3856, 3856, 3856, 3813, 3813, 3813, 3813, 3813, 3813, 3813, 3813, 3813, 3771, 3771, 3771, 3771, 3730, 3730, 3690, 3690, 3690, 3690, 3690, 3574, 0, 0, 0, 0, 0, 0, 0, 0, 0, 0, 0, 0, 0, 0, 0, 0, 0, 0, 0, 0, 0, 0, 0, 0, 0, 0, 0, 0, 0, 0, 0, 0, 0, 0, 0, 0, 0, 0, 0, 0, 0, 0, 0, 0, 0, 0, 0, 0, 0, 0, 0, 0, 0, 0, 0, 0, 0, 0, 0, 0, 0, 0, 0, 0, 0, 0, 0, 0, 0, 0, 0, 0, 0, 0, 0, 0, 0, 0, 0, 0, 0, 0, 0, 0, 0, 0, 0, 0, 0, 0, 0, 0, 0, 0, 0, 0, 0, 3090, 3090, 3090, 3090, 3118, 3090, 3090, 3090, 3062, 3062, 3062, 3062, 3035, 3035, 3035, 3035, 3035, 3035, 3035, 3035, 3035, 3035, 3008, 3008, 3008, 3008, 3008, 2982, 2982, 2982, 2982, 2982, 2956, 2956, 2956, 2931, 2931, 2931, 2931, 2931, 2931, 2906, 2906, 2906, 2906, 2906, 2906, 2906, 2906, 2882, 2882, 2882, 2882, 2882, 2858, 2858, 2858, 2834, 2834, 2834, 2834, 2834, 2834, 2834, 2811, 2811, 2811, 2811, 2811, 2811, 2811, 2811, 2811, 2788, 2788, 2788, 2788, 2765, 2765, 2765, 2765, 2743, 2743, 2743, 2743, 2743, 2721, 2721, 2721, 2721, 2721, 2721, 2700, 2700, 2700, 2700, 2700, 2700, 2700, 2679, 2679, 2679, 2679, 2679, 2658, 2658, 2658, 2658, 2658, 2658, 2658, 2637, 2637, 2637, 2637, 2637, 2637, 2637, 2617, 2617, 2617, 2617, 2597, 2597, 2597, 2597, 2597, 2597, 2578, 2578, 2578, 2578, 2578, 2578, 2578, 2578, 2558, 2558, 2558, 2558, 2558, 2539, 2539, 2539, 2539, 2539, 2521, 2521, 2521, 2502, 2502, 2502, 2502, 2502, 2502, 2502, 2502, 2502, 2502, 2484, 2484, 2484, 2484, 2466, 2466, 2466, 2466, 2448, 2448, 2448, 2448, 2431, 2431, 2431, 2431, 2431, 2431, 2431, 2431, 2431, 2431, 2448, 0, 0, 0, 0, 0, 2102, 2102, 2102, 2077, 0, 0, 0, 0, 0, 0, 0, 0, 0, 0, 0, 0, 0, 0, 0, 0, 0, 0, 0, 0, 0, 0, 0, 0, 0, 0, 0, 0, 0, 0, 0, 0, 0, 0, 0, 0, 0, 0, 0, 0, 0, 0, 0, 0, 0, 0, 0, 0, 0, 0, 0, 0, 0, 0, 0, 0, 0, 0, 1969, 1969, 1969, 1958, 1969, 1969, 0, 0, 0, 0, 0, 1947, 1958, 1947, 1936, 1936, 1936, 1936, 1936, 1936, 1936, 0, 0, 0, 0, 1947, 1925, 1925, 1914, 1903, 1893, 0, 0, 0, 0, 0,
       4459, 4459, 4459, 4459, 4459, 4459, 4402, 4402, 4346, 4346, 4291, 4238, 4238, 4238, 4186, 4186, 4186, 4136, 4136, 4136, 4086, 4086, 4038, 4038, 4038, 4038, 4038, 3991, 3991, 3991, 3945, 3991, 3991, 3991, 3945, 3945, 3945, 3945, 3945, 3945, 3945, 3945, 3900, 3900, 3856, 3856, 3856, 3856, 3856, 3813, 3813, 3813, 3813, 3856, 3856, 3856, 3856, 3856, 3856, 3856, 3856, 3856, 3856, 3856, 3856, 3856, 3856, 3856, 3900, 3900, 3900, 3900, 3900, 3900, 3945, 3945, 3945, 3945, 3945, 3991, 3991, 3991, 3991, 3991, 3991, 3991, 3991, 3991, 3991, 3991, 3991, 3991, 3991, 3991, 3991, 4038, 4038, 3991, 3991, 3991, 3991, 3991, 4038, 4038, 4038, 4038, 4038, 4038, 4038, 4038, 4038, 4038, 4038, 4038, 4038, 4038, 4038, 4038, 4038, 4038, 4038, 3991, 3991, 3991, 3991, 3991, 3945, 3945, 3945, 3900, 3900, 3900, 3900, 3900, 3900, 3900, 3856, 3856, 3856, 3856, 3856, 3856, 3813, 3813, 3813, 3813, 3813, 3813, 3813, 3813, 3771, 3771, 3771, 3771, 3730, 3730, 3690, 3690, 3690, 3690, 3690, 0, 0, 0, 0, 0, 0, 0, 0, 0, 0, 0, 0, 0, 0, 0, 0, 0, 0, 0, 0, 0, 0, 0, 0, 0, 0, 0, 0, 0, 0, 0, 0, 0, 0, 0, 0, 0, 0, 0, 0, 0, 0, 0, 0, 0, 0, 0, 0, 0, 0, 0, 0, 0, 0, 0, 0, 0, 0, 0, 0, 0, 0, 0, 0, 0, 0, 0, 0, 0, 0, 0, 0, 0, 0, 0, 0, 0, 0, 0, 0, 0, 0, 0, 0, 0, 0, 0, 0, 0, 0, 0, 0, 0, 0, 0, 0, 0, 0, 3090, 3090, 3090, 3090, 3090, 3090, 3090, 3090, 3062, 3062, 3062, 3062, 3062, 3062, 3035, 3035, 3035, 3035, 3035, 3035, 3035, 3008, 3008, 3008, 3008, 3008, 3008, 2982, 2982, 2982, 2982, 2956, 2956, 2956, 2931, 2931, 2931, 2931, 2931, 2906, 2906, 2906, 2906, 2906, 2906, 2906, 2906, 2906, 2906, 2906, 2882, 2882, 2882, 2882, 2858, 2858, 2858, 2834, 2834, 2834, 2834, 2834, 2834, 2834, 2811, 2811, 2811, 2811, 2811, 2811, 2811, 2811, 2811, 2788, 2788, 2788, 2788, 2765, 2765, 2765, 2765, 2765, 2743, 2743, 2743, 2743, 2721, 2721, 2721, 2721, 2721, 2721, 2700, 2700, 2700, 2700, 2700, 2700, 2700, 2679, 2679, 2679, 2679, 2679, 2658, 2658, 2658, 2658, 2658, 2658, 2658, 2637, 2637, 2637, 2637, 2637, 2637, 2637, 2617, 2617, 2617, 2617, 2617, 2597, 2597, 2597, 2597, 2597, 2597, 2578, 2578, 2578, 2578, 2578, 2578, 2578, 2558, 2558, 2558, 2558, 2558, 2539, 2539, 2539, 2539, 2539, 2539, 2521, 2521, 2502, 2502, 2502, 2502, 2502, 2502, 2502, 2502, 2502, 2484, 2484, 2484, 2484, 2466, 2466, 2466, 2466, 2466, 2448, 2448, 2448, 2448, 2431, 2431, 2431, 2431, 2431, 2431, 2431, 2431, 2431, 2431, 2448, 2397, 0, 0, 0, 0, 2102, 2089, 2089, 2077, 0, 0, 0, 0, 0, 0, 0, 0, 0, 0, 0, 0, 0, 0, 0, 0, 0, 0, 0, 0, 0, 0, 0, 0, 0, 0, 0, 0, 0, 0, 0, 0, 0, 0, 0, 0, 0, 0, 0, 0, 0, 0, 0, 0, 0, 0, 0, 0, 0, 0, 0, 0, 0, 0, 0, 0, 0, 0, 0, 0, 1969, 2004, 0, 0, 0, 0, 0, 0, 0, 1872, 1925, 1947, 1936, 1936, 1936, 1936, 1936, 1936, 1936, 0, 0, 1914, 1914, 1903, 1893, 1903, 1903, 1893, 1882, 0, 0, 0, 0, 0,
       4459, 4459, 4459, 4459, 4402, 4402, 4402, 4346, 4291, 4238, 4238, 4238, 4238, 4186, 4186, 4186, 4136, 4136, 4136, 4136, 4086, 4038, 4038, 4038, 3991, 3991, 3991, 3991, 3991, 3945, 3945, 3945, 3945, 3945, 3945, 3945, 3945, 3945, 3945, 3945, 3945, 3900, 3900, 3900, 3856, 3856, 3856, 3856, 3813, 3813, 3813, 3813, 3813, 3813, 3813, 3856, 3856, 3856, 3856, 3856, 3856, 3856, 3856, 3856, 3856, 3856, 3856, 3856, 3856, 3900, 3900, 3900, 3900, 3900, 3945, 3945, 3945, 3945, 3991, 3991, 3991, 3991, 3991, 3991, 3991, 3991, 3991, 3991, 3991, 3991, 3991, 3991, 3991, 3991, 3991, 3991, 3991, 3991, 3991, 3991, 3991, 3991, 3991, 4038, 4038, 4038, 4038, 4038, 4038, 4038, 4038, 4038, 4038, 4038, 4038, 4038, 4038, 4038, 4038, 4038, 3991, 3991, 3991, 3991, 3991, 3945, 3945, 3945, 3945, 3900, 3900, 3900, 3900, 3900, 3900, 3900, 3856, 3856, 3856, 3856, 3856, 3813, 3813, 3813, 3813, 3813, 3813, 3813, 3813, 3813, 3771, 3771, 3771, 3771, 3730, 3730, 3690, 3690, 3690, 3690, 3690, 0, 0, 0, 0, 0, 0, 0, 0, 0, 0, 0, 0, 0, 0, 0, 0, 0, 0, 0, 0, 0, 0, 0, 0, 0, 0, 0, 0, 0, 0, 0, 0, 0, 0, 0, 0, 0, 0, 0, 0, 0, 0, 0, 0, 0, 0, 0, 0, 0, 0, 0, 0, 0, 0, 0, 0, 0, 0, 0, 0, 0, 0, 0, 0, 0, 0, 0, 0, 0, 0, 0, 0, 0, 0, 0, 0, 0, 0, 0, 0, 0, 0, 0, 0, 0, 0, 0, 0, 0, 0, 0, 0, 0, 0, 0, 0, 0, 0, 0, 3090, 3090, 3090, 3090, 3090, 3090, 3090, 3062, 3062, 3062, 3062, 3062, 3062, 3035, 3035, 3035, 3035, 3035, 3035, 3035, 3008, 3008, 3008, 3008, 3008, 3008, 2982, 2982, 2982, 2956, 2956, 2956, 2956, 2931, 2931, 2931, 2931, 2906, 2906, 2906, 2906, 2906, 2906, 2906, 2906, 2906, 2906, 2906, 2906, 2906, 2882, 2882, 2882, 2882, 2858, 2858, 2834, 2834, 2834, 2834, 2834, 2834, 2834, 2834, 2834, 2811, 2811, 2811, 2811, 2811, 2811, 2811, 2788, 2788, 2788, 2788, 2765, 2765, 2765, 2765, 2765, 2765, 2743, 2743, 2743, 2721, 2721, 2721, 2721, 2721, 2700, 2700, 2700, 2700, 2700, 2700, 2700, 2700, 2679, 2679, 2679, 2679, 2679, 2658, 2658, 2658, 2658, 2658, 2658, 2658, 2637, 2637, 2637, 2637, 2637, 2637, 2637, 2637, 2617, 2617, 2617, 2617, 2617, 2597, 2597, 2597, 2597, 2597, 2578, 2578, 2578, 2578, 2578, 2578, 2578, 2578, 2558, 2558, 2558, 2558, 2558, 2539, 2539, 2539, 2539, 2521, 2521, 2521, 2502, 2502, 2502, 2502, 2502, 2502, 2502, 2502, 2502, 2484, 2484, 2484, 2484, 2466, 2466, 2466, 2466, 2466, 2448, 2448, 2448, 2431, 2431, 2431, 2431, 2431, 2431, 2431, 2431, 2431, 2431, 2431, 2431, 0, 0, 0, 0, 0, 2089, 2089, 2077, 2077, 0, 0, 0, 0, 0, 0, 0, 0, 0, 0, 0, 0, 0, 0, 0, 0, 0, 0, 0, 0, 0, 0, 0, 0, 0, 0, 0, 0, 0, 0, 0, 0, 0, 0, 0, 0, 0, 0, 0, 0, 0, 0, 0, 0, 0, 0, 0, 0, 0, 0, 0, 0, 0, 0, 0, 0, 0, 0, 0, 0, 0, 0, 0, 0, 0, 0, 0, 0, 0, 1882, 1925, 1947, 1947, 1936, 1936, 1947, 1947, 1936, 1936, 1936, 1925, 1914, 1914, 1903, 1903, 1925, 1914, 1893, 1882, 0, 0, 0, 0, 0 ]
