%YAML 1.0
---
depth: !!opencv-matrix
   rows: 32
   cols: 545
   dt: w
   data: [ 4346, 4346, 4346, 4346, 4291, 4291, 4291, 4291, 4291, 4291, 4291, 4238, 4238, 0, 0, 0, 0, 0, 0, 0, 0, 0, 0, 0, 0, 0, 0, 0, 2064, 2064, 2064, 2064, 2052, 2052, 2040, 2040, 2028, 2028, 2016, 2016, 2004, 2004, 2004, 2016, 2004, 1992, 0, 0, 1981, 1981, 1981, 1981, 1981, 1981, 1969, 1969, 1969, 1969, 1969, 1969, 1969, 1969, 1969, 1969, 1969, 1969, 1969, 1969, 1969, 1969, 1969, 1969, 1958, 1958, 1958, 1958, 1958, 1958, 1958, 1969, 1969, 1969, 1981, 1981, 1992, 2004, 2004, 2004, 2004, 2004, 2016, 2016, 2016, 2016, 2016, 2016, 2028, 2028, 2028, 2040, 2052, 2064, 2064, 2077, 2077, 2077, 2077, 2089, 2089, 2089, 2089, 0, 0, 0, 0, 0, 0, 0, 0, 0, 0, 0, 0, 0, 0, 0, 0, 0, 0, 0, 0, 0, 0, 0, 0, 0, 0, 0, 0, 0, 0, 0, 0, 0, 0, 0, 0, 0, 0, 0, 0, 0, 0, 0, 0, 0, 0, 0, 0, 0, 2270, 2270, 2270, 2270, 2270, 2270, 2270, 2270, 2270, 2270, 2270, 2270, 2270, 2270, 2270, 2270, 2255, 2270, 2270, 0, 0, 0, 0, 0, 0, 0, 2285, 2270, 2255, 2240, 2240, 2240, 2240, 2240, 2240, 2240, 2240, 2240, 2240, 2240, 2255, 2270, 2255, 2255, 2255, 2255, 2255, 0, 0, 0, 0, 0, 0, 0, 0, 0, 0, 0, 0, 0, 0, 0, 0, 0, 0, 0, 0, 0, 0, 0, 0, 0, 0, 0, 0, 0, 0, 0, 0, 0, 0, 0, 0, 0, 0, 0, 0, 0, 0, 0, 0, 0, 0, 0, 0, 0, 0, 0, 0, 0, 0, 0, 0, 0, 0, 0, 0, 0, 0, 0, 0, 0, 0, 0, 0, 0, 0, 0, 0, 0, 0, 0, 0, 0, 0, 0, 0, 0, 0, 0, 0, 0, 0, 0, 0, 0, 0, 0, 0, 0, 0, 0, 0, 0, 0, 0, 0, 0, 0, 0, 0, 0, 0, 1852, 1862, 1862, 1862, 1872, 1882, 1882, 1882, 0, 0, 0, 0, 0, 0, 0, 0, 0, 0, 0, 0, 0, 0, 0, 0, 0, 0, 0, 1882, 1872, 1862, 1862, 1872, 1882, 1882, 1882, 1882, 1882, 1882, 1882, 1882, 1882, 1893, 1893, 1893, 1882, 1882, 1862, 1862, 1862, 1832, 1842, 1872, 0, 0, 0, 0, 0, 0, 0, 0, 0, 0, 0, 0, 0, 0, 0, 0, 0, 0, 0, 0, 0, 0, 0, 0, 0, 0, 0, 0, 0, 0, 0, 0, 0, 0, 0, 0, 0, 0, 0, 0, 0, 0, 1704, 1696, 1696, 1679, 1679, 1679, 1679, 1671, 1663, 1663, 0, 0, 0, 0, 0, 0, 0, 0, 0, 0, 0, 0, 0, 0, 0, 0, 0, 1608, 1608, 1608, 1601, 1601, 1601, 1601, 1593, 1593, 1586, 1586, 1578, 1578, 1578, 1578, 1578, 1571, 1571, 1571, 1571, 1571, 1564, 1564, 1557, 1557, 1550, 1550, 1550, 1550, 1550, 1550, 1550, 1543, 1543, 1543, 1543, 1543, 1536, 1536, 1529, 1529, 1522, 1522, 1522, 1522, 1522, 1522, 1522, 1522, 1522, 1515, 1515, 1515, 1515, 1515, 1509, 1509, 1509, 1502, 1502, 1496, 1496, 1496, 1496, 1489, 1489, 1489, 1489, 1489, 1483, 1483, 1483, 1476, 1476, 1476, 1476, 1476, 1470, 1470, 1470, 1470, 1470, 1464, 1464, 1464, 1464, 1457, 1457, 1457, 1457, 1464, 1464, 1457, 0, 0, 0, 1483, 1470, 1451, 1439, 1427, 1427, 1427, 1427, 1427, 1421, 1421, 1421, 1421, 1421, 1421,
       4346, 4346, 4346, 4346, 4291, 4291, 4291, 4291, 4291, 4291, 4291, 4238, 0, 0, 0, 0, 0, 0, 0, 0, 0, 0, 0, 0, 0, 0, 0, 0, 2102, 0, 0, 2064, 2040, 2040, 2028, 2028, 2028, 2028, 2016, 2016, 2016, 0, 0, 1981, 2004, 1992, 0, 0, 1981, 1981, 1981, 1981, 1969, 1969, 1969, 1969, 1969, 1969, 1969, 1969, 1969, 1969, 1981, 1981, 1969, 1969, 1969, 1969, 1969, 1969, 1958, 1958, 1958, 1958, 1947, 1947, 1947, 1947, 1958, 1958, 1958, 1969, 1981, 1981, 1981, 1992, 2004, 2004, 2004, 2004, 2016, 2016, 2016, 2016, 2016, 2016, 2016, 2028, 2028, 2040, 2052, 2052, 2064, 2064, 2077, 2077, 2077, 2089, 2089, 2089, 2089, 0, 0, 0, 0, 0, 0, 0, 0, 0, 0, 0, 0, 0, 0, 0, 0, 0, 0, 0, 0, 0, 0, 0, 0, 0, 0, 0, 0, 0, 0, 0, 0, 0, 0, 0, 0, 0, 0, 0, 0, 0, 0, 0, 0, 0, 0, 0, 0, 0, 2285, 2285, 2270, 2270, 2270, 2270, 2270, 2270, 2270, 2270, 2255, 2255, 2255, 2255, 2255, 2255, 2255, 0, 0, 0, 0, 0, 0, 0, 0, 0, 2270, 2270, 2255, 2240, 2240, 2240, 2240, 2240, 2240, 2225, 2225, 2240, 2240, 2240, 2255, 2255, 2255, 2240, 2240, 2255, 2255, 0, 0, 0, 0, 0, 0, 0, 0, 0, 0, 0, 0, 0, 0, 0, 0, 0, 0, 0, 0, 0, 0, 0, 0, 0, 0, 0, 0, 0, 0, 0, 0, 0, 0, 0, 0, 0, 0, 0, 0, 0, 0, 0, 0, 0, 0, 0, 0, 0, 0, 0, 0, 0, 0, 0, 0, 0, 0, 0, 0, 0, 0, 0, 0, 0, 0, 0, 0, 0, 0, 0, 0, 0, 0, 0, 0, 0, 0, 0, 0, 0, 0, 0, 0, 0, 0, 0, 0, 0, 1739, 1739, 1739, 1748, 1757, 0, 0, 0, 0, 0, 0, 0, 0, 0, 0, 0, 1852, 1852, 1862, 1862, 1862, 1872, 1872, 1882, 1882, 1882, 1882, 1882, 1882, 0, 0, 0, 1852, 0, 0, 0, 0, 0, 0, 0, 0, 0, 0, 0, 1882, 1872, 0, 0, 0, 1872, 1872, 0, 0, 0, 1872, 1872, 1872, 1872, 1872, 1882, 1852, 1842, 0, 1872, 1842, 0, 1872, 0, 0, 0, 0, 0, 0, 0, 0, 0, 0, 0, 0, 0, 0, 0, 0, 0, 0, 0, 0, 0, 0, 0, 0, 0, 0, 0, 0, 0, 0, 0, 0, 0, 0, 0, 0, 0, 0, 0, 0, 0, 0, 0, 0, 1696, 1687, 1679, 1671, 1671, 1671, 1671, 1671, 1663, 1663, 0, 0, 0, 0, 0, 0, 0, 0, 0, 0, 0, 0, 0, 0, 0, 0, 0, 1608, 1608, 1608, 1601, 1601, 1601, 1593, 1593, 1586, 1586, 1578, 1578, 1578, 1578, 1578, 1571, 1571, 1571, 1571, 1571, 1564, 1564, 1564, 1557, 1557, 1550, 1550, 1550, 1550, 1550, 1550, 1543, 1543, 1543, 1543, 1543, 1536, 1536, 1529, 1529, 1522, 1522, 1522, 1522, 1522, 1522, 1522, 1522, 1522, 1515, 1515, 1515, 1515, 1515, 1509, 1509, 1502, 1502, 1502, 1496, 1496, 1496, 1496, 1496, 1489, 1489, 1489, 1489, 1489, 1483, 1483, 1483, 1476, 1476, 1476, 1476, 1470, 1470, 1470, 1464, 1464, 1464, 1464, 1464, 1464, 1457, 1457, 1451, 1451, 1451, 1457, 1457, 1451, 0, 0, 0, 1464, 1457, 1445, 0, 0, 0, 1421, 1421, 1421, 1421, 1421, 1415, 1421, 1421, 1421,
       4402, 4346, 4346, 4346, 4291, 4291, 4291, 4291, 4291, 4238, 4238, 4238, 0, 0, 0, 0, 0, 0, 0, 0, 0, 0, 0, 0, 0, 0, 0, 0, 0, 0, 0, 2052, 2040, 2028, 2028, 2028, 2016, 2016, 2016, 2016, 2016, 0, 0, 0, 1958, 1981, 1969, 0, 0, 0, 1981, 1969, 1969, 1969, 1969, 1969, 1969, 1969, 1969, 1969, 1969, 1969, 1969, 1969, 1969, 1969, 1969, 1969, 1969, 1969, 1958, 1958, 1958, 1958, 1947, 1947, 1947, 1947, 1958, 1958, 1958, 1969, 1969, 1981, 1981, 1992, 2004, 2004, 2004, 2004, 2004, 2016, 2016, 2016, 2016, 2016, 2016, 2016, 2028, 2028, 2040, 2052, 2064, 2064, 2077, 2077, 2077, 2089, 2089, 2089, 2089, 2102, 0, 0, 0, 0, 0, 0, 0, 0, 0, 0, 0, 0, 0, 0, 0, 0, 0, 0, 0, 0, 0, 0, 0, 0, 0, 0, 0, 0, 0, 0, 0, 0, 0, 0, 0, 0, 0, 0, 0, 0, 0, 0, 0, 0, 0, 0, 0, 0, 2285, 2270, 2270, 2270, 2270, 2270, 2270, 2255, 2255, 2255, 2255, 2255, 2240, 2240, 2240, 2240, 2240, 0, 0, 0, 0, 0, 0, 0, 0, 2255, 2255, 2255, 2240, 2240, 2240, 0, 0, 0, 0, 0, 2225, 2225, 2225, 2285, 2316, 2240, 2240, 0, 0, 0, 0, 0, 0, 0, 0, 0, 0, 0, 0, 0, 0, 0, 0, 0, 0, 0, 0, 0, 0, 0, 0, 0, 0, 0, 0, 0, 0, 0, 0, 0, 0, 0, 0, 0, 0, 0, 0, 0, 0, 0, 0, 0, 0, 0, 0, 0, 0, 0, 0, 0, 0, 0, 0, 0, 0, 0, 0, 0, 0, 0, 0, 0, 0, 0, 0, 0, 0, 0, 0, 1903, 1882, 1862, 1862, 1862, 1852, 1832, 1822, 0, 0, 0, 0, 0, 0, 0, 0, 0, 0, 0, 0, 0, 0, 0, 1757, 0, 0, 1766, 0, 0, 0, 0, 0, 0, 0, 1842, 1842, 1842, 1852, 1852, 1852, 1862, 1862, 1862, 1872, 1872, 1872, 1882, 1882, 1882, 1882, 1872, 1872, 1872, 1872, 1872, 1882, 1882, 1882, 1862, 1862, 1862, 1872, 1882, 1882, 1872, 1872, 1862, 0, 0, 0, 0, 0, 0, 0, 0, 0, 1852, 1862, 1852, 1842, 1832, 1813, 1842, 0, 0, 1813, 0, 0, 0, 0, 0, 0, 0, 0, 0, 0, 0, 0, 0, 0, 0, 0, 0, 0, 0, 0, 1721, 1713, 0, 0, 0, 0, 0, 0, 0, 0, 0, 0, 0, 0, 0, 0, 0, 0, 1704, 1704, 0, 0, 0, 0, 0, 1696, 1687, 1687, 1671, 1671, 1671, 1671, 1671, 1663, 1663, 1663, 0, 0, 1671, 1647, 1631, 1623, 1623, 0, 0, 0, 0, 0, 0, 0, 1608, 1608, 1608, 1608, 1608, 1601, 1601, 1593, 1593, 1593, 1586, 1586, 1578, 1578, 1578, 1571, 1571, 1571, 1571, 1571, 1571, 1571, 1564, 1564, 1564, 1564, 1557, 1557, 1550, 1550, 1550, 1550, 1550, 1543, 1543, 1543, 1543, 1543, 1536, 1536, 1536, 1529, 1522, 1522, 1522, 1522, 1522, 1522, 1522, 1515, 1515, 1515, 1515, 1515, 1515, 1509, 1509, 1509, 1502, 1502, 1502, 1496, 1496, 1496, 1496, 1496, 1496, 1489, 1489, 1489, 1489, 1489, 1483, 1483, 1483, 1476, 1476, 1476, 1476, 1476, 1470, 1470, 1464, 1464, 1464, 1464, 1464, 1457, 1457, 1451, 1451, 1445, 1445, 1451, 1451, 1445, 1445, 1445, 1451, 1451, 1451, 1445, 0, 0, 0, 1427, 1421, 1421, 1421, 1421, 1415, 1415, 1415, 1415,
       4402, 4346, 4346, 4346, 4291, 4291, 4291, 4291, 4291, 4291, 4291, 4291, 4238, 4238, 0, 0, 0, 0, 0, 0, 0, 0, 0, 0, 0, 0, 2064, 2040, 2040, 2052, 2052, 2052, 2040, 2028, 2028, 2028, 2016, 2016, 2016, 2016, 2016, 0, 0, 0, 0, 1981, 0, 0, 0, 0, 1969, 1969, 1969, 1969, 1958, 1969, 1969, 1969, 1969, 1969, 1969, 1969, 1969, 1969, 1969, 1969, 1969, 1969, 1958, 1969, 1958, 1958, 1958, 1958, 1958, 1958, 1947, 1947, 1958, 1958, 1958, 1969, 1969, 1969, 1981, 1981, 1992, 1992, 2004, 2004, 2004, 2016, 2016, 2016, 2016, 2016, 2016, 2016, 2028, 2028, 2028, 2040, 2052, 2064, 2064, 2077, 2077, 2077, 2077, 2089, 2089, 2102, 0, 0, 0, 0, 0, 0, 0, 0, 0, 0, 0, 0, 0, 0, 0, 0, 0, 0, 0, 0, 0, 0, 0, 0, 0, 0, 0, 0, 0, 0, 0, 0, 0, 0, 0, 0, 0, 0, 0, 0, 0, 0, 0, 0, 0, 0, 0, 2285, 2285, 2270, 2270, 2255, 2255, 2255, 2255, 2255, 2255, 2255, 2240, 2240, 2240, 2225, 2225, 2240, 2225, 2225, 2225, 2211, 2211, 2211, 2211, 0, 0, 2225, 2225, 2225, 2225, 2225, 0, 0, 0, 0, 0, 0, 2183, 0, 0, 0, 0, 0, 0, 0, 0, 2028, 0, 0, 0, 0, 0, 0, 0, 0, 0, 0, 0, 0, 2052, 2040, 0, 0, 0, 0, 0, 0, 0, 2016, 2004, 2004, 2004, 2004, 2004, 0, 0, 0, 0, 0, 0, 0, 0, 0, 0, 0, 0, 0, 0, 0, 0, 0, 0, 0, 0, 0, 0, 0, 0, 0, 0, 0, 0, 0, 0, 0, 0, 0, 0, 0, 0, 0, 0, 0, 0, 0, 1872, 1872, 1862, 1862, 1852, 1852, 1842, 1832, 1822, 0, 0, 0, 0, 0, 0, 1832, 1794, 1794, 0, 0, 0, 0, 0, 0, 1775, 0, 0, 1775, 0, 0, 0, 0, 0, 1822, 1832, 1842, 1842, 1842, 1852, 1852, 1852, 1852, 1862, 1862, 1862, 1872, 1872, 1872, 1882, 1882, 1882, 1872, 1872, 1872, 1872, 1872, 1882, 1872, 1862, 1852, 1852, 1852, 1852, 1862, 1852, 1852, 1852, 1852, 0, 0, 0, 0, 0, 0, 0, 0, 0, 0, 0, 1803, 1803, 1803, 1794, 1784, 0, 0, 1794, 1784, 1784, 0, 0, 0, 0, 0, 0, 0, 0, 0, 0, 0, 1757, 1748, 1739, 1730, 1730, 1721, 1721, 1713, 1704, 0, 0, 0, 0, 0, 0, 0, 0, 0, 1696, 0, 0, 0, 0, 0, 0, 1696, 1696, 1687, 0, 0, 1679, 1679, 1679, 1679, 1671, 1671, 1663, 1663, 1663, 1663, 1655, 1655, 1647, 1647, 1639, 1639, 1631, 1631, 1623, 1623, 1616, 1616, 1616, 1616, 1616, 1616, 1616, 1608, 1608, 1608, 1601, 1601, 1601, 1601, 1593, 1593, 1593, 1586, 1586, 1578, 1578, 1578, 1571, 1571, 1571, 1571, 1571, 1571, 1571, 1564, 1564, 1564, 1557, 1557, 1557, 1550, 1550, 1550, 1550, 1543, 1543, 1543, 1543, 1543, 1543, 1536, 1536, 1529, 1529, 1522, 1522, 1522, 1522, 1522, 1522, 1515, 1515, 1515, 1515, 1515, 1509, 1509, 1509, 1502, 1502, 1502, 1502, 1502, 1496, 1496, 1496, 1496, 1496, 1496, 1489, 1489, 1489, 1489, 1489, 1483, 1483, 1483, 1476, 1476, 1476, 1476, 1476, 1470, 1470, 1470, 1464, 1464, 1464, 1464, 1457, 1451, 1451, 1445, 1445, 1445, 1451, 1451, 1445, 1445, 1445, 1445, 1445, 1445, 1439, 0, 0, 1427, 1427, 1421, 1421, 1421, 1421, 1415, 1415, 1415, 1415,
       4402, 4402, 4346, 4346, 4346, 4291, 4291, 4291, 4291, 4291, 4291, 4291, 4238, 4238, 0, 0, 0, 0, 0, 0, 0, 0, 0, 0, 0, 0, 0, 2052, 2040, 2040, 2052, 2052, 2040, 2028, 2028, 2028, 2028, 2016, 2016, 2016, 2016, 2004, 2004, 1992, 1981, 1981, 0, 0, 0, 1969, 1969, 1969, 1969, 1969, 1969, 1969, 1969, 1969, 1969, 1969, 1969, 1969, 1969, 1969, 1969, 1969, 1969, 1958, 1958, 1958, 1958, 1958, 1958, 1958, 1958, 1958, 1947, 1947, 1958, 1958, 1958, 1969, 1969, 1969, 1981, 1981, 1992, 1992, 1992, 2004, 2004, 2004, 2004, 2016, 2016, 2016, 2016, 2016, 2016, 2028, 2028, 2040, 2040, 2052, 2064, 2077, 2077, 2077, 2077, 2077, 2089, 2102, 0, 0, 0, 0, 0, 0, 0, 0, 0, 0, 0, 0, 0, 0, 0, 0, 0, 0, 0, 0, 0, 0, 0, 0, 0, 0, 0, 0, 0, 0, 0, 0, 0, 0, 0, 0, 0, 0, 0, 0, 0, 0, 0, 0, 0, 0, 2316, 2270, 2270, 2270, 2270, 2255, 2255, 2255, 2255, 2240, 2240, 2240, 2240, 2225, 2225, 2225, 2225, 2225, 2225, 2225, 2211, 2197, 2197, 2197, 2183, 2183, 2197, 2197, 2211, 2197, 2197, 2197, 0, 0, 0, 0, 0, 0, 2155, 0, 0, 0, 0, 0, 0, 0, 0, 2016, 0, 0, 0, 2089, 2077, 2077, 2089, 2064, 2102, 0, 0, 2052, 2052, 2040, 2040, 2040, 2040, 2028, 2016, 2028, 2016, 2016, 2004, 2004, 2004, 2004, 1992, 1992, 1992, 1992, 0, 0, 1981, 1969, 0, 0, 1947, 1947, 1947, 1947, 1947, 1936, 1936, 1936, 0, 0, 0, 0, 1925, 1925, 1914, 1914, 1914, 1914, 0, 0, 1914, 0, 0, 0, 0, 1893, 0, 0, 0, 0, 1872, 1872, 1872, 1872, 1862, 1862, 1852, 1852, 1852, 1842, 1832, 1832, 1822, 1813, 1803, 1803, 1803, 1803, 1794, 1794, 1794, 1794, 1794, 1794, 1794, 1794, 1794, 1803, 1803, 1803, 1813, 1813, 1813, 1813, 1813, 1822, 1832, 1842, 1842, 1842, 1842, 1852, 1852, 1852, 1852, 1862, 1862, 1872, 1872, 1872, 1882, 1882, 1872, 1872, 1872, 1872, 1872, 1862, 1872, 1852, 1852, 1842, 1842, 1842, 1842, 1842, 1842, 1842, 1842, 1842, 0, 0, 0, 0, 0, 0, 0, 0, 0, 0, 0, 1803, 1803, 1794, 1794, 1784, 1803, 1794, 1784, 1775, 1775, 1775, 1766, 1766, 1730, 1748, 1766, 0, 0, 0, 1721, 1748, 1748, 1739, 1739, 1730, 1730, 1721, 1721, 1713, 1704, 0, 0, 0, 0, 0, 1663, 1696, 1687, 1687, 1687, 1687, 0, 0, 1687, 1687, 1696, 1687, 1687, 1679, 0, 0, 1671, 1671, 1671, 1663, 1663, 1663, 1663, 1647, 1655, 1655, 1647, 1647, 1647, 1639, 1639, 1639, 1631, 1631, 1623, 1623, 1616, 1616, 1616, 1616, 1616, 1608, 1608, 1608, 1608, 1608, 1601, 1601, 1601, 1593, 1593, 1593, 1593, 1586, 1586, 1578, 1578, 1578, 1571, 1571, 1571, 1571, 1571, 1571, 1564, 1564, 1564, 1564, 1557, 1557, 1557, 1550, 1550, 1550, 1550, 1543, 1543, 1543, 1543, 1543, 1543, 1536, 1536, 1536, 1529, 1522, 1522, 1522, 1522, 1522, 1522, 1515, 1515, 1515, 1515, 1515, 1509, 1509, 1509, 1509, 1502, 1502, 1502, 1502, 1496, 1496, 1496, 1496, 1496, 1496, 1489, 1489, 1489, 1489, 1483, 1483, 1483, 1476, 1476, 1476, 1476, 1476, 1476, 1470, 1470, 1470, 1464, 1464, 1464, 1464, 1457, 1451, 1451, 1451, 1451, 1445, 1451, 1451, 1445, 1445, 1445, 1445, 1445, 1445, 1439, 1433, 1433, 1427, 1427, 1421, 1421, 1421, 1415, 1415, 1415, 1415, 1415,
       4402, 4402, 4346, 4346, 4346, 4291, 4291, 4291, 4291, 4291, 4291, 4291, 4238, 0, 0, 0, 0, 0, 0, 0, 0, 0, 0, 0, 0, 0, 0, 0, 2040, 2040, 2052, 2052, 2040, 2028, 2028, 2028, 2028, 2016, 2016, 2016, 2016, 2004, 1992, 1992, 1981, 1981, 1969, 1969, 1969, 1969, 1969, 1969, 1969, 1969, 1969, 1969, 1969, 1969, 1969, 1969, 1969, 1969, 1969, 1969, 1969, 1969, 1958, 1958, 1958, 1958, 1958, 1958, 1947, 1958, 1947, 1958, 1947, 1947, 1958, 1958, 1958, 1958, 1969, 1969, 1969, 1981, 1981, 1992, 1992, 1992, 2004, 2004, 2004, 2004, 2004, 2004, 2016, 2016, 2016, 2028, 2028, 2028, 2040, 2052, 2064, 2064, 2064, 2077, 2077, 2077, 2089, 2102, 0, 0, 0, 0, 0, 0, 0, 0, 0, 0, 0, 0, 0, 0, 0, 0, 0, 0, 0, 0, 0, 0, 0, 2380, 0, 0, 0, 0, 0, 0, 2285, 0, 0, 0, 0, 0, 0, 0, 0, 0, 0, 0, 0, 0, 0, 0, 2285, 2270, 2270, 2270, 2270, 2255, 2255, 2255, 2240, 2240, 2240, 2240, 2240, 2225, 2225, 2225, 2225, 2225, 2225, 2211, 2211, 2197, 2183, 2183, 2183, 2183, 2183, 2183, 2183, 2183, 2183, 2169, 2169, 2169, 0, 0, 0, 0, 2129, 0, 0, 0, 0, 0, 0, 0, 2028, 2064, 0, 0, 0, 2089, 2077, 2077, 2077, 2064, 2064, 2064, 2064, 2052, 2040, 2040, 2028, 2028, 2028, 2016, 2016, 2016, 2016, 2004, 2004, 2004, 1992, 1992, 1992, 1992, 1992, 1992, 1992, 1981, 1969, 1969, 1958, 1958, 1958, 1947, 1947, 1947, 1947, 1936, 1936, 1936, 1925, 1925, 1925, 1925, 1925, 1925, 1914, 1914, 1914, 1914, 1914, 1914, 1914, 0, 0, 0, 0, 1893, 0, 0, 1882, 1882, 1872, 1872, 1872, 1872, 1862, 1862, 1852, 1852, 1852, 1842, 1842, 1832, 1822, 1813, 1813, 1813, 1803, 1803, 1803, 1803, 1803, 1803, 1803, 1803, 1803, 1803, 1803, 1803, 1803, 1803, 1813, 1813, 1813, 1813, 1813, 1822, 1832, 1842, 1842, 1842, 1842, 1852, 1852, 1852, 1852, 1862, 1862, 1862, 1872, 1872, 1872, 1872, 1872, 1862, 1862, 1862, 1862, 1852, 1852, 1852, 1842, 1842, 1842, 1842, 1842, 1842, 1842, 1842, 1842, 1842, 1832, 1832, 1832, 0, 0, 1813, 0, 0, 1803, 1803, 1803, 1794, 1794, 1794, 1784, 1784, 1784, 1784, 1775, 1775, 1766, 1766, 1766, 1766, 1766, 1766, 1766, 1757, 1757, 1748, 1748, 1739, 1739, 1739, 1739, 1730, 1730, 1721, 1721, 1713, 1704, 0, 0, 0, 0, 0, 1671, 1687, 1687, 1687, 1687, 1687, 1687, 1687, 1687, 1687, 1687, 1687, 1679, 1679, 1671, 1663, 1663, 1663, 1663, 1663, 1663, 1655, 1655, 1647, 1647, 1647, 1647, 1647, 1639, 1639, 1639, 1631, 1631, 1623, 1623, 1623, 1616, 1616, 1616, 1608, 1608, 1608, 1608, 1608, 1601, 1601, 1601, 1601, 1601, 1593, 1593, 1593, 1593, 1586, 1586, 1578, 1578, 1578, 1571, 1571, 1571, 1571, 1571, 1571, 1564, 1564, 1564, 1564, 1557, 1557, 1557, 1550, 1550, 1550, 1550, 1543, 1543, 1543, 1543, 1543, 1543, 1536, 1536, 1536, 1529, 1522, 1522, 1522, 1515, 1515, 1515, 1515, 1515, 1515, 1515, 1509, 1509, 1509, 1509, 1502, 1502, 1502, 1502, 1502, 1496, 1496, 1496, 1496, 1496, 1496, 1489, 1489, 1489, 1489, 1483, 1483, 1476, 1476, 1476, 1476, 1476, 1476, 1470, 1470, 1470, 1470, 1464, 1464, 1464, 1464, 1457, 1457, 1451, 1451, 1451, 1445, 1445, 1445, 1445, 1445, 1445, 1445, 1439, 1439, 1439, 1433, 1427, 1427, 1421, 1421, 1421, 1421, 1415, 1415, 1415, 1415, 1415,
       4402, 4402, 4346, 4346, 4346, 4291, 4346, 4346, 4291, 4291, 4291, 4291, 4238, 0, 0, 0, 0, 0, 0, 0, 0, 0, 0, 0, 0, 0, 0, 0, 2040, 2040, 2052, 2052, 2040, 2028, 2028, 2028, 2028, 2016, 2016, 2016, 2016, 2004, 1992, 1992, 1981, 1981, 0, 0, 0, 1969, 1969, 1969, 1969, 1969, 1969, 1969, 1969, 1969, 1969, 1969, 1969, 1969, 1969, 1969, 1969, 1969, 1958, 1958, 1958, 1958, 1958, 1947, 1947, 1947, 1947, 1947, 1947, 1947, 1947, 1947, 1947, 1958, 1958, 1969, 1969, 1969, 1981, 1981, 1981, 1992, 1992, 1992, 2004, 2004, 2004, 2004, 2016, 2016, 2016, 2016, 2028, 2028, 2040, 2040, 2052, 2064, 2064, 2064, 2077, 2077, 2077, 2089, 0, 0, 0, 0, 0, 0, 0, 0, 0, 0, 0, 0, 0, 0, 0, 2380, 2380, 2380, 2364, 0, 0, 0, 2364, 2348, 0, 0, 0, 0, 0, 0, 2316, 2332, 2316, 2300, 2300, 0, 0, 0, 0, 0, 0, 2270, 2270, 2270, 2270, 2270, 2270, 2270, 2270, 2270, 2255, 2255, 2240, 2240, 2240, 2240, 2240, 2240, 2225, 2225, 2225, 2225, 2211, 2225, 2211, 2211, 2197, 2183, 2183, 2183, 2169, 2169, 2169, 2169, 2169, 2169, 2169, 2169, 2155, 2155, 2142, 2142, 2142, 2129, 2129, 2129, 2115, 2115, 2115, 2115, 2102, 2089, 2089, 2089, 2089, 0, 0, 2077, 2077, 2077, 2077, 2064, 2064, 2064, 2052, 2052, 2040, 2040, 2028, 2028, 2028, 2016, 2016, 2016, 2016, 2004, 2004, 2004, 1992, 1992, 1992, 1992, 1992, 1992, 1992, 1981, 1981, 1969, 1969, 1958, 1958, 1958, 1958, 1947, 1947, 1936, 1936, 1936, 1925, 1925, 1925, 1925, 1925, 1925, 1914, 1914, 1914, 1914, 1903, 1903, 1903, 0, 0, 0, 0, 1882, 1882, 1882, 1882, 1882, 1872, 1872, 1872, 1872, 1862, 1862, 1862, 1852, 1852, 1842, 1842, 1842, 1832, 1822, 1813, 1813, 1813, 1813, 1813, 1803, 1803, 1803, 1803, 1803, 1803, 1803, 1803, 1803, 1803, 1813, 1813, 1813, 1813, 1813, 1813, 1822, 1832, 1832, 1842, 1842, 1852, 1852, 1852, 1852, 1852, 1862, 1862, 1872, 1872, 1872, 1872, 1872, 1872, 1862, 1852, 1852, 1852, 1852, 1852, 1842, 1842, 1842, 1842, 1832, 1842, 1842, 1832, 1832, 1832, 1832, 1832, 1822, 1822, 1822, 1822, 1813, 1803, 1803, 1803, 1803, 1794, 1794, 1794, 1784, 1775, 1775, 1775, 1775, 1766, 1766, 1766, 1766, 1757, 1757, 1757, 1757, 1757, 1757, 1748, 1748, 1748, 1739, 1739, 1739, 1730, 1730, 1730, 1721, 1713, 1713, 1704, 1704, 1704, 1696, 1696, 1696, 1696, 1687, 1687, 1687, 1687, 1687, 1687, 1679, 1679, 1679, 1679, 1679, 1679, 1671, 1671, 1663, 1663, 1655, 1655, 1655, 1655, 1655, 1647, 1639, 1647, 1647, 1647, 1639, 1639, 1639, 1639, 1631, 1631, 1623, 1623, 1623, 1616, 1616, 1616, 1608, 1608, 1608, 1608, 1608, 1601, 1601, 1601, 1601, 1601, 1593, 1593, 1593, 1593, 1586, 1586, 1578, 1578, 1578, 1571, 1571, 1571, 1571, 1571, 1571, 1571, 1564, 1564, 1564, 1557, 1557, 1557, 1550, 1550, 1550, 1550, 1543, 1543, 1543, 1543, 1543, 1536, 1536, 1536, 1529, 1529, 1522, 1522, 1522, 1515, 1515, 1515, 1515, 1515, 1515, 1509, 1509, 1509, 1509, 1502, 1502, 1502, 1502, 1502, 1502, 1496, 1496, 1496, 1496, 1496, 1489, 1489, 1489, 1489, 1483, 1483, 1483, 1476, 1476, 1476, 1476, 1470, 1470, 1470, 1470, 1470, 1470, 1464, 1464, 1464, 1464, 1457, 1457, 1451, 1451, 1445, 1445, 1445, 1445, 1445, 1439, 1439, 1439, 1439, 1439, 1433, 1433, 1427, 1427, 1421, 1421, 1421, 1421, 1415, 1415, 1415, 1415, 1415,
       4402, 4402, 4402, 4346, 4346, 4346, 4346, 4346, 4291, 4291, 4291, 4291, 4238, 0, 0, 0, 0, 0, 0, 0, 0, 0, 0, 0, 0, 0, 0, 0, 2040, 0, 0, 2052, 2040, 2028, 2028, 2028, 2028, 2028, 2016, 2016, 2016, 2004, 1992, 1981, 1981, 1981, 0, 0, 0, 1969, 1969, 1969, 1969, 1969, 1969, 1969, 1969, 1969, 1969, 1969, 1969, 1969, 1969, 1969, 1969, 1969, 1958, 1958, 1958, 1958, 1958, 1947, 1947, 1947, 1947, 1947, 1936, 1936, 1947, 1947, 1947, 1958, 1958, 1958, 1969, 1969, 1981, 1981, 1981, 1981, 1992, 1992, 1992, 2004, 2004, 2004, 2004, 2016, 2016, 2016, 2028, 2028, 2028, 2040, 2052, 2064, 2064, 2064, 2064, 2077, 2077, 2089, 0, 0, 0, 0, 0, 0, 0, 0, 0, 0, 0, 0, 0, 0, 2448, 2397, 2397, 2380, 2380, 2364, 2364, 2364, 2364, 2364, 0, 0, 0, 0, 0, 2332, 2316, 2332, 2316, 2300, 2300, 0, 0, 0, 2300, 2285, 2285, 2285, 2270, 2270, 2270, 2270, 2270, 2270, 2270, 2255, 2255, 2255, 2240, 2240, 2240, 2240, 2240, 2240, 2225, 2225, 2225, 2225, 2211, 2211, 2211, 2197, 2183, 2183, 2183, 2169, 2169, 2169, 2169, 2169, 2169, 2169, 2155, 2155, 2142, 2142, 2129, 2129, 2129, 2115, 2115, 2115, 2115, 2115, 2102, 2102, 2102, 2089, 2077, 2077, 2077, 2089, 2077, 2077, 2077, 2064, 2064, 2064, 2064, 2064, 2052, 2052, 2052, 2040, 2028, 2028, 2028, 2028, 2016, 2016, 2016, 2004, 2004, 2004, 1992, 1992, 1992, 1992, 1992, 1992, 1992, 1981, 1981, 1969, 1969, 1969, 1958, 1958, 1958, 1947, 1947, 1947, 1936, 1936, 1936, 1925, 1925, 1925, 1925, 1925, 1914, 1914, 1914, 1903, 1903, 1903, 1903, 1903, 1903, 1893, 1893, 1882, 1882, 1882, 1882, 1882, 1872, 1872, 1872, 1872, 1862, 1862, 1862, 1852, 1852, 1842, 1842, 1842, 1832, 1832, 1822, 1822, 1813, 1813, 1813, 1813, 1803, 1803, 1803, 1803, 1803, 1803, 1803, 1803, 1803, 1803, 1813, 1813, 1813, 1813, 1813, 1822, 1822, 1832, 1842, 1842, 1852, 1852, 1852, 1852, 1852, 1862, 1862, 1872, 1872, 1872, 1872, 1872, 1862, 1852, 1852, 1852, 1852, 1852, 1852, 1842, 1842, 1842, 1832, 1832, 1832, 1832, 1832, 1822, 1822, 1822, 1822, 1813, 1813, 1813, 1813, 1803, 1803, 1803, 1803, 1794, 1794, 1784, 1784, 1784, 1775, 1775, 1775, 1775, 1766, 1766, 1766, 1766, 1757, 1757, 1757, 1757, 1757, 1748, 1748, 1748, 1739, 1739, 1739, 1730, 1730, 1730, 1721, 1721, 1713, 1704, 1704, 1704, 1704, 1696, 1696, 1696, 1696, 1687, 1687, 1687, 1687, 1687, 1679, 1679, 1671, 1671, 1671, 1671, 1671, 1671, 1663, 1663, 1663, 1655, 1655, 1655, 1647, 1647, 1647, 1639, 1639, 1639, 1639, 1639, 1639, 1631, 1631, 1631, 1631, 1623, 1623, 1623, 1616, 1616, 1616, 1608, 1608, 1608, 1608, 1608, 1601, 1601, 1601, 1601, 1601, 1593, 1593, 1593, 1586, 1586, 1578, 1578, 1578, 1571, 1571, 1571, 1571, 1571, 1571, 1571, 1571, 1564, 1564, 1564, 1557, 1557, 1557, 1550, 1550, 1550, 1550, 1543, 1543, 1543, 1543, 1536, 1536, 1536, 1536, 1529, 1529, 1522, 1522, 1522, 1515, 1515, 1515, 1515, 1515, 1515, 1509, 1509, 1509, 1509, 1502, 1502, 1502, 1502, 1496, 1496, 1496, 1496, 1496, 1496, 1496, 1489, 1489, 1489, 1483, 1483, 1483, 1476, 1476, 1476, 1476, 1470, 1470, 1470, 1470, 1470, 1470, 1464, 1464, 1464, 1464, 1457, 1457, 1451, 1451, 1445, 1445, 1445, 1445, 1445, 1439, 1439, 1439, 1439, 1439, 1439, 1433, 1433, 1433, 1427, 1421, 1421, 1421, 1421, 1415, 1415, 1415, 1415, 1415,
       4402, 4402, 4402, 4402, 4346, 4346, 4346, 4346, 4346, 4291, 4291, 4291, 4238, 0, 0, 0, 0, 0, 0, 0, 0, 0, 0, 0, 0, 0, 0, 0, 0, 0, 0, 2052, 2040, 2028, 2028, 2028, 2028, 2028, 2016, 2016, 2016, 2004, 1992, 1981, 1981, 1981, 1969, 0, 0, 1969, 1969, 1969, 1969, 1969, 1969, 1969, 1969, 1969, 1969, 1969, 1969, 1969, 1969, 1969, 1969, 1969, 1958, 1958, 1958, 1958, 1958, 1947, 1947, 1947, 1947, 1936, 1936, 1947, 1947, 1958, 1947, 1958, 1958, 1958, 1969, 1969, 1981, 1981, 1981, 1981, 1992, 1992, 1992, 2004, 2004, 2004, 2004, 2016, 2016, 2016, 2016, 2028, 2028, 2040, 2052, 2052, 2064, 2064, 2064, 2077, 2077, 2077, 2089, 0, 0, 0, 0, 0, 0, 0, 0, 2484, 2466, 2431, 2414, 2397, 2397, 2397, 2397, 2380, 2380, 2364, 2364, 2364, 2364, 2364, 2348, 2348, 2348, 2332, 2332, 2332, 2332, 2332, 2316, 2316, 2300, 2300, 2300, 2300, 2300, 2285, 2285, 2285, 2270, 2270, 2270, 2270, 2270, 2270, 2255, 2255, 2255, 2255, 2240, 2240, 2240, 2240, 2240, 2240, 2225, 2225, 2225, 2211, 2197, 2197, 2197, 2183, 2183, 2183, 2183, 2169, 2169, 2169, 2169, 2169, 2155, 2155, 2155, 2142, 2142, 2129, 2129, 2129, 2129, 2115, 2115, 2115, 2115, 2102, 2102, 2102, 2089, 2089, 2077, 2077, 2077, 2077, 2077, 2077, 2077, 2064, 2064, 2064, 2064, 2064, 2052, 2052, 2052, 2040, 2040, 2028, 2028, 2028, 2016, 2016, 2016, 2004, 2004, 2004, 1992, 1992, 1992, 1992, 1981, 1981, 1981, 1981, 1969, 1969, 1969, 1969, 1958, 1958, 1958, 1947, 1947, 1947, 1936, 1936, 1936, 1925, 1925, 1925, 1925, 1925, 1914, 1914, 1914, 1903, 1903, 1903, 1903, 1903, 1903, 1893, 1893, 1882, 1882, 1882, 1882, 1882, 1872, 1872, 1872, 1862, 1862, 1862, 1862, 1852, 1852, 1842, 1842, 1842, 1832, 1832, 1822, 1822, 1813, 1813, 1813, 1813, 1803, 1803, 1803, 1803, 1803, 1803, 1803, 1803, 1803, 1803, 1813, 1813, 1813, 1813, 1813, 1822, 1822, 1832, 1842, 1842, 1852, 1852, 1852, 1852, 1852, 1862, 1862, 1862, 1872, 1872, 1872, 1862, 1862, 1852, 1852, 1842, 1842, 1842, 1842, 1842, 1842, 1832, 1832, 1832, 1832, 1832, 1822, 1822, 1822, 1813, 1813, 1803, 1803, 1803, 1803, 1794, 1794, 1794, 1794, 1784, 1784, 1784, 1775, 1775, 1775, 1775, 1766, 1766, 1766, 1766, 1766, 1757, 1757, 1757, 1757, 1757, 1748, 1748, 1748, 1739, 1739, 1739, 1739, 1730, 1730, 1730, 1721, 1713, 1713, 1704, 1704, 1704, 1704, 1704, 1696, 1696, 1696, 1687, 1687, 1687, 1687, 1687, 1679, 1679, 1671, 1671, 1671, 1671, 1671, 1663, 1663, 1655, 1655, 1655, 1655, 1647, 1647, 1647, 1639, 1639, 1639, 1639, 1639, 1639, 1631, 1631, 1631, 1631, 1631, 1623, 1623, 1623, 1616, 1616, 1616, 1608, 1608, 1608, 1608, 1608, 1601, 1601, 1601, 1601, 1593, 1593, 1593, 1593, 1586, 1586, 1578, 1578, 1578, 1578, 1578, 1578, 1571, 1571, 1571, 1571, 1571, 1564, 1564, 1564, 1557, 1557, 1557, 1550, 1550, 1550, 1543, 1543, 1543, 1536, 1536, 1536, 1536, 1529, 1536, 1529, 1529, 1522, 1522, 1522, 1522, 1522, 1515, 1515, 1515, 1515, 1509, 1509, 1502, 1502, 1502, 1502, 1502, 1496, 1496, 1496, 1496, 1496, 1496, 1496, 1489, 1489, 1489, 1489, 1483, 1476, 1476, 1476, 1470, 1470, 1470, 1470, 1470, 1470, 1470, 1470, 1464, 1464, 1464, 1464, 1464, 1457, 1457, 1451, 1451, 1445, 1445, 1445, 1445, 1445, 1439, 1439, 1439, 1439, 1439, 1439, 1433, 1433, 1433, 1427, 1421, 1421, 1421, 1415, 1415, 1415, 1415, 1415, 1415,
       4402, 4402, 4402, 4402, 4346, 4346, 4346, 4346, 4346, 4291, 4291, 4291, 4238, 0, 0, 0, 0, 0, 0, 0, 0, 0, 0, 0, 0, 0, 0, 0, 0, 0, 0, 2052, 2040, 2028, 2028, 2028, 2028, 2028, 2016, 2016, 2016, 2016, 2004, 1992, 1981, 1981, 1981, 1981, 1981, 1981, 1969, 1969, 1969, 1969, 1969, 1969, 1981, 1969, 1969, 1969, 1969, 1969, 1969, 1969, 1969, 1969, 1958, 1958, 1958, 1958, 1947, 1947, 1947, 1947, 1947, 1947, 1947, 1947, 1947, 1958, 1958, 1958, 1958, 1958, 1958, 1969, 1969, 1981, 1981, 1981, 1981, 1992, 1992, 2004, 2004, 2004, 2004, 2016, 2016, 2016, 2016, 2028, 2028, 2040, 2040, 2052, 2064, 2064, 2064, 2064, 2077, 2077, 2089, 2102, 2115, 0, 0, 0, 0, 0, 0, 2448, 2431, 2414, 2414, 2397, 2397, 2397, 2397, 2380, 2380, 2380, 2364, 2364, 2364, 2364, 2348, 2348, 2348, 2332, 2332, 2332, 2332, 2332, 2316, 2316, 2300, 2300, 2300, 2300, 2300, 2285, 2285, 2270, 2270, 2270, 2270, 2270, 2270, 2270, 2255, 2255, 2240, 2240, 2240, 2240, 2240, 2240, 2225, 2225, 2225, 2211, 2211, 2211, 2197, 2197, 2197, 2183, 2183, 2183, 2169, 2169, 2169, 2169, 2169, 2169, 2155, 2155, 2142, 2142, 2129, 2129, 2129, 2129, 2115, 2115, 2115, 2115, 2102, 2102, 2102, 2102, 2089, 2089, 2077, 2077, 2077, 2077, 2077, 2077, 2064, 2064, 2064, 2064, 2064, 2052, 2052, 2052, 2040, 2040, 2040, 2028, 2028, 2028, 2016, 2016, 2016, 2004, 2004, 2004, 1992, 1992, 1992, 1992, 1981, 1981, 1981, 1981, 1969, 1969, 1958, 1958, 1958, 1958, 1958, 1947, 1947, 1947, 1936, 1936, 1936, 1925, 1925, 1925, 1925, 1914, 1914, 1914, 1903, 1903, 1903, 1903, 1903, 1893, 1893, 1893, 1893, 1882, 1882, 1882, 1872, 1872, 1872, 1862, 1862, 1862, 1862, 1862, 1852, 1852, 1852, 1842, 1842, 1842, 1832, 1822, 1822, 1813, 1813, 1813, 1813, 1813, 1803, 1803, 1803, 1803, 1803, 1803, 1803, 1803, 1803, 1803, 1803, 1813, 1813, 1813, 1813, 1822, 1822, 1832, 1842, 1842, 1852, 1852, 1852, 1852, 1852, 1862, 1862, 1862, 1872, 1872, 1862, 1862, 1862, 1852, 1842, 1842, 1842, 1842, 1842, 1842, 1842, 1832, 1832, 1832, 1832, 1832, 1822, 1822, 1813, 1813, 1813, 1803, 1803, 1803, 1803, 1794, 1794, 1794, 1794, 1784, 1784, 1784, 1775, 1775, 1775, 1766, 1766, 1766, 1766, 1757, 1757, 1757, 1757, 1748, 1748, 1748, 1748, 1748, 1739, 1739, 1739, 1730, 1730, 1730, 1721, 1721, 1721, 1713, 1713, 1704, 1704, 1704, 1704, 1704, 1696, 1696, 1696, 1696, 1687, 1687, 1687, 1687, 1679, 1679, 1671, 1671, 1671, 1671, 1671, 1663, 1663, 1655, 1655, 1655, 1647, 1647, 1647, 1647, 1639, 1639, 1639, 1631, 1631, 1631, 1631, 1631, 1631, 1623, 1623, 1623, 1623, 1616, 1616, 1616, 1608, 1608, 1608, 1608, 1608, 1601, 1601, 1601, 1601, 1601, 1593, 1593, 1593, 1593, 1586, 1586, 1586, 1578, 1578, 1578, 1578, 1578, 1578, 1571, 1571, 1571, 1571, 1571, 1564, 1564, 1564, 1557, 1557, 1550, 1550, 1550, 1543, 1543, 1536, 1536, 1536, 1536, 1529, 1529, 1536, 1529, 1529, 1529, 1522, 1522, 1522, 1522, 1522, 1515, 1515, 1515, 1509, 1502, 1502, 1496, 1496, 1496, 1496, 1496, 1496, 1496, 1496, 1496, 1496, 1496, 1489, 1489, 1489, 1489, 1483, 1476, 1476, 1476, 1470, 1476, 1470, 1470, 1476, 1470, 1470, 1470, 1464, 1464, 1464, 1464, 1464, 1457, 1457, 1451, 1451, 1451, 1445, 1445, 1445, 1445, 1439, 1439, 1439, 1439, 1439, 1433, 1433, 1433, 1433, 1427, 1427, 1421, 1421, 1421, 1415, 1415, 1415, 1415, 1409,
       4402, 4402, 4402, 4402, 4346, 4346, 4346, 4346, 4346, 4291, 4291, 4291, 4238, 4238, 0, 0, 0, 0, 0, 0, 0, 0, 0, 0, 0, 0, 0, 0, 0, 0, 0, 2052, 2040, 2028, 2028, 2028, 2028, 2016, 2016, 2016, 2016, 2016, 2004, 1981, 1981, 1981, 1981, 1981, 1981, 1981, 1969, 1981, 1981, 1981, 1981, 1981, 1981, 1981, 1969, 1969, 1969, 1969, 1969, 1969, 1969, 1969, 1958, 1958, 1958, 1958, 1958, 1947, 1947, 1947, 1947, 1947, 1947, 1947, 1947, 1958, 1958, 1958, 1958, 1958, 1958, 1969, 1969, 1969, 1981, 1981, 1981, 1992, 1992, 1992, 2004, 2004, 2004, 2016, 2016, 2016, 2016, 2028, 2028, 2028, 2040, 2040, 2052, 2052, 2064, 2064, 2077, 2077, 2077, 2102, 2115, 0, 0, 0, 0, 0, 2466, 2431, 2431, 2414, 2414, 2397, 2397, 2397, 2397, 2380, 2380, 2380, 2364, 2364, 2364, 2364, 2348, 2348, 2348, 2332, 2332, 2332, 2332, 2332, 2316, 2316, 2316, 2300, 2300, 2300, 2285, 2285, 2285, 2285, 2270, 2270, 2270, 2270, 2255, 2255, 2255, 2255, 2240, 2240, 2240, 2240, 2225, 2225, 2225, 2225, 2211, 2211, 2211, 2197, 2183, 2183, 2183, 2183, 2183, 2169, 2169, 2169, 2169, 2169, 2169, 2155, 2155, 2155, 2142, 2142, 2129, 2129, 2129, 2115, 2115, 2115, 2115, 2102, 2102, 2102, 2102, 2102, 2089, 2089, 2077, 2077, 2077, 2077, 2077, 2077, 2064, 2064, 2064, 2064, 2064, 2052, 2052, 2040, 2040, 2040, 2028, 2028, 2028, 2028, 2016, 2016, 2016, 2004, 2004, 2004, 1992, 1992, 1992, 1981, 1981, 1981, 1981, 1969, 1969, 1969, 1969, 1969, 1958, 1958, 1958, 1947, 1947, 1936, 1936, 1936, 1925, 1925, 1925, 1914, 1914, 1914, 1914, 1903, 1903, 1903, 1903, 1893, 1893, 1893, 1893, 1893, 1882, 1882, 1882, 1882, 1872, 1872, 1872, 1862, 1862, 1862, 1862, 1852, 1852, 1852, 1842, 1842, 1842, 1842, 1832, 1832, 1822, 1822, 1822, 1813, 1813, 1813, 1813, 1803, 1803, 1803, 1803, 1803, 1803, 1803, 1803, 1803, 1803, 1813, 1813, 1813, 1813, 1822, 1822, 1832, 1842, 1842, 1842, 1852, 1852, 1852, 1852, 1862, 1862, 1862, 1862, 1862, 1862, 1862, 1862, 1852, 1842, 1842, 1842, 1842, 1842, 1842, 1842, 1842, 1832, 1832, 1832, 1822, 1822, 1813, 1813, 1813, 1813, 1803, 1803, 1803, 1803, 1803, 1794, 1794, 1794, 1794, 1784, 1784, 1784, 1775, 1775, 1766, 1766, 1766, 1766, 1757, 1757, 1757, 1757, 1748, 1748, 1748, 1748, 1739, 1739, 1739, 1730, 1730, 1730, 1730, 1721, 1721, 1721, 1713, 1713, 1704, 1704, 1704, 1704, 1704, 1704, 1696, 1696, 1687, 1687, 1687, 1687, 1687, 1679, 1679, 1671, 1671, 1671, 1671, 1663, 1663, 1655, 1655, 1655, 1647, 1647, 1647, 1639, 1639, 1639, 1631, 1631, 1631, 1631, 1631, 1631, 1631, 1631, 1623, 1623, 1623, 1616, 1616, 1616, 1608, 1608, 1608, 1608, 1601, 1601, 1601, 1593, 1593, 1593, 1593, 1586, 1586, 1586, 1586, 1586, 1586, 1586, 1586, 1578, 1578, 1578, 1578, 1578, 1571, 1571, 1571, 1571, 1571, 1564, 1564, 1564, 1557, 1557, 1557, 1550, 1550, 1543, 1543, 1536, 1536, 1536, 1529, 1529, 1529, 1536, 1529, 1529, 1529, 1529, 1522, 1522, 1522, 1522, 1515, 1515, 1515, 1509, 1502, 1502, 1496, 1496, 1496, 1496, 1496, 1496, 1496, 1496, 1496, 1496, 1496, 1496, 1489, 1489, 1489, 1483, 1476, 1476, 1476, 1476, 1476, 1470, 1476, 1476, 1476, 1470, 1470, 1464, 1464, 1464, 1464, 1464, 1457, 1457, 1451, 1451, 1451, 1445, 1445, 1445, 1445, 1439, 1439, 1439, 1439, 1439, 1433, 1433, 1433, 1433, 1427, 1427, 1421, 1421, 1421, 1415, 1415, 1415, 1415, 1409,
       4402, 4402, 4402, 4402, 4346, 4346, 4346, 4346, 4346, 4291, 4291, 4291, 4238, 4238, 0, 0, 0, 0, 0, 0, 0, 0, 0, 0, 0, 0, 0, 0, 0, 0, 2052, 2052, 2040, 2028, 2028, 2028, 2028, 2016, 2016, 2016, 2016, 2016, 1992, 1981, 1981, 1981, 1981, 1981, 1992, 1981, 1981, 1981, 1981, 1981, 1981, 1981, 1981, 1981, 1969, 1969, 1969, 1969, 1969, 1969, 1969, 1969, 1969, 1969, 1969, 1958, 1958, 1958, 1958, 1947, 1947, 1947, 1947, 1947, 1947, 1958, 1958, 1958, 1958, 1958, 1958, 1969, 1969, 1969, 1969, 1981, 1981, 1981, 1992, 1992, 2004, 2004, 2004, 2016, 2016, 2016, 2016, 2028, 2028, 2028, 2028, 2040, 2052, 2052, 2064, 2064, 2077, 2077, 2077, 2089, 2102, 2115, 2129, 0, 0, 0, 2448, 2431, 2414, 2414, 2397, 2397, 2397, 2397, 2380, 2380, 2380, 2364, 2364, 2364, 2364, 2348, 2348, 2348, 2348, 2332, 2332, 2332, 2332, 2332, 2316, 2316, 2316, 2300, 2300, 2300, 2285, 2285, 2285, 2285, 2270, 2270, 2270, 2270, 2255, 2255, 2255, 2255, 2240, 2240, 2240, 2240, 2225, 2225, 2225, 2225, 2211, 2211, 2197, 2197, 2197, 2183, 2183, 2183, 2183, 2169, 2169, 2169, 2169, 2155, 2155, 2155, 2155, 2142, 2142, 2142, 2129, 2129, 2129, 2115, 2115, 2115, 2115, 2102, 2102, 2102, 2102, 2089, 2089, 2089, 2077, 2077, 2077, 2077, 2077, 2064, 2064, 2064, 2064, 2064, 2052, 2052, 2040, 2040, 2040, 2028, 2028, 2028, 2028, 2016, 2016, 2016, 2016, 2004, 2004, 2004, 1992, 1992, 1992, 1981, 1981, 1981, 1981, 1969, 1969, 1969, 1969, 1969, 1958, 1958, 1958, 1947, 1947, 1936, 1936, 1936, 1925, 1925, 1925, 1925, 1914, 1914, 1914, 1903, 1903, 1903, 1903, 1893, 1893, 1893, 1893, 1882, 1882, 1882, 1882, 1882, 1872, 1872, 1872, 1862, 1862, 1862, 1862, 1852, 1852, 1852, 1842, 1842, 1842, 1842, 1832, 1832, 1822, 1822, 1822, 1822, 1813, 1813, 1813, 1803, 1803, 1803, 1803, 1803, 1803, 1803, 1803, 1803, 1803, 1813, 1813, 1813, 1813, 1822, 1822, 1832, 1842, 1842, 1842, 1852, 1852, 1852, 1852, 1862, 1862, 1862, 1862, 1862, 1862, 1862, 1852, 1852, 1842, 1842, 1842, 1842, 1842, 1842, 1842, 1842, 1832, 1832, 1822, 1822, 1822, 1813, 1813, 1813, 1813, 1813, 1803, 1803, 1803, 1803, 1794, 1794, 1794, 1794, 1784, 1784, 1784, 1775, 1775, 1766, 1766, 1766, 1766, 1757, 1757, 1757, 1757, 1748, 1748, 1748, 1748, 1739, 1739, 1739, 1739, 1730, 1730, 1721, 1721, 1721, 1730, 0, 0, 1739, 1704, 1704, 1704, 1704, 1704, 1696, 1696, 1687, 1687, 1687, 1687, 1687, 1679, 1679, 1671, 1671, 0, 0, 0, 0, 1663, 1655, 1655, 1647, 1647, 1647, 1639, 1639, 1639, 1639, 1631, 1631, 1631, 1631, 1631, 1631, 1631, 1623, 1616, 1616, 1616, 1616, 1608, 1608, 1608, 1608, 1601, 1601, 1601, 1601, 1593, 1593, 1593, 1586, 1586, 1586, 1586, 1586, 1586, 1586, 1586, 1586, 1586, 1578, 1578, 1578, 1578, 1571, 1571, 1571, 1571, 1571, 1564, 1564, 1564, 1557, 1557, 1557, 1550, 1550, 1543, 1543, 1536, 1536, 1543, 1557, 1571, 1586, 1557, 1529, 1529, 1529, 1529, 1529, 1522, 1522, 1522, 1522, 1515, 1515, 1509, 1509, 1502, 1502, 1496, 1496, 1496, 1496, 1496, 1509, 0, 0, 0, 0, 0, 0, 0, 0, 1882, 1893, 1842, 0, 0, 0, 0, 0, 1476, 1470, 1483, 0, 0, 1464, 1457, 1457, 1457, 1457, 1451, 1451, 1451, 1445, 1445, 1445, 1445, 1445, 1439, 1439, 1439, 1439, 1433, 1433, 1439, 1433, 1433, 1433, 1427, 1421, 1421, 1421, 1415, 1415, 1415, 1415, 1409,
       4402, 4402, 4402, 4402, 4346, 4346, 4346, 4346, 4346, 4291, 4291, 4291, 4238, 4238, 0, 0, 0, 0, 0, 0, 0, 0, 0, 0, 0, 0, 0, 0, 0, 0, 2052, 2052, 2040, 2040, 2028, 2028, 2028, 2016, 2016, 2016, 2016, 2016, 2004, 1992, 1992, 1981, 1981, 1992, 1992, 1981, 1981, 1981, 1981, 1981, 1981, 1981, 1981, 1981, 1969, 1969, 1969, 1969, 1969, 1969, 1969, 1969, 1969, 1969, 1969, 1969, 1958, 1958, 1958, 1958, 1947, 1947, 1947, 1947, 1947, 1947, 1958, 1947, 1947, 1947, 1958, 1958, 1958, 1969, 1969, 1981, 1981, 1981, 1992, 1992, 2004, 2004, 2004, 2016, 2016, 2016, 2016, 2016, 2028, 2028, 2028, 2040, 2040, 2052, 2052, 2064, 2064, 2064, 2077, 2077, 2089, 2089, 2142, 0, 0, 0, 2431, 2414, 2414, 2414, 2397, 2397, 2397, 2397, 2380, 2380, 2380, 2364, 2364, 2364, 2364, 2348, 2348, 2348, 2348, 2332, 2332, 2332, 2332, 2332, 2316, 2316, 2316, 2300, 2300, 2300, 2300, 2285, 2285, 2285, 2270, 2270, 2270, 2270, 2255, 2255, 2255, 2255, 2240, 2240, 2240, 2240, 2225, 2225, 2225, 2225, 2211, 2211, 2197, 2197, 2197, 2183, 2183, 2183, 2183, 2169, 2169, 2169, 2169, 2155, 2155, 2155, 2155, 2142, 2142, 2129, 2129, 2129, 2129, 2115, 2115, 2115, 2115, 2102, 2102, 2102, 2102, 2089, 2089, 2089, 2077, 2077, 2077, 2077, 2077, 2064, 2064, 2064, 2064, 2064, 2052, 2052, 2040, 2040, 2040, 2028, 2028, 2028, 2028, 2016, 2016, 2016, 2016, 2004, 2004, 2004, 2004, 1992, 1992, 1981, 1981, 1981, 1981, 1969, 1969, 1969, 1969, 1958, 1958, 1958, 1958, 1947, 1947, 1936, 1936, 1936, 1925, 1925, 1925, 1925, 1914, 1914, 1914, 1903, 1903, 1903, 1903, 1893, 1893, 1893, 1893, 1882, 1882, 1882, 1882, 1882, 1872, 1872, 1872, 1872, 1862, 1862, 1862, 1862, 1852, 1852, 1852, 1842, 1842, 1842, 1832, 1832, 1822, 1822, 1822, 1822, 1813, 1813, 1813, 1803, 1803, 1803, 1803, 1803, 1803, 1803, 1803, 1803, 1803, 1813, 1813, 1813, 1813, 1822, 1822, 1832, 1832, 1842, 1842, 1852, 1852, 1852, 1852, 1852, 1862, 1862, 1862, 1862, 1862, 1852, 1852, 1852, 1842, 1842, 1842, 1842, 1842, 1842, 1842, 1842, 1832, 1832, 1832, 1832, 1822, 1822, 1822, 1822, 1813, 1813, 1803, 0, 0, 1803, 1794, 1794, 1794, 1794, 1784, 1784, 1784, 1775, 1775, 1766, 1766, 1766, 1766, 1757, 1757, 1757, 1748, 1748, 1748, 1748, 1739, 1739, 1739, 1739, 1730, 1730, 1721, 1721, 1721, 1721, 0, 0, 0, 0, 1704, 1704, 1704, 1704, 1704, 1696, 1696, 1696, 1696, 1687, 1687, 1687, 1679, 0, 0, 1671, 0, 0, 0, 0, 1663, 1655, 1655, 1655, 1655, 1647, 1647, 1647, 0, 0, 0, 0, 0, 0, 0, 0, 0, 0, 0, 0, 0, 0, 1608, 1608, 1608, 1601, 1601, 1593, 1593, 1593, 1586, 1586, 1578, 1586, 1586, 1586, 1586, 1586, 1586, 1586, 1586, 1578, 1586, 1578, 1578, 1586, 1586, 1578, 1571, 0, 0, 1571, 1578, 1586, 1564, 1557, 1557, 1550, 1550, 1550, 1557, 1578, 1601, 1623, 1655, 0, 0, 0, 0, 0, 0, 0, 0, 1529, 1522, 1522, 1522, 1522, 1522, 1515, 1515, 1509, 1509, 1502, 1502, 1502, 1496, 0, 0, 0, 0, 1766, 1775, 1794, 1775, 1822, 0, 0, 1842, 1842, 1832, 1794, 1784, 1803, 1803, 1784, 0, 0, 0, 0, 0, 0, 1457, 1457, 1457, 1451, 1451, 1445, 1445, 1445, 1445, 1445, 1445, 1445, 1439, 1439, 1439, 1439, 0, 0, 0, 1439, 1433, 1433, 1427, 1421, 1427, 1451, 0, 0, 0, 0, 0,
       4402, 4402, 4402, 4402, 4402, 4346, 4346, 4346, 4346, 4346, 4346, 4291, 4238, 4136, 0, 0, 0, 0, 0, 0, 0, 0, 0, 0, 0, 0, 0, 0, 0, 0, 0, 0, 2040, 2040, 2028, 2028, 2028, 2016, 2016, 2016, 2016, 2016, 2004, 1992, 1992, 1981, 1981, 1992, 1992, 1981, 1981, 1981, 1981, 1981, 1981, 1981, 1981, 1981, 1969, 1969, 1969, 1969, 1969, 1969, 1969, 1969, 1969, 1969, 1969, 1969, 1958, 1958, 1958, 1958, 1947, 1947, 1947, 1947, 1947, 1947, 1947, 1947, 1947, 1947, 1947, 1958, 1958, 1958, 1969, 1969, 1969, 1981, 1981, 1992, 1992, 2004, 2004, 2016, 2016, 2016, 2016, 2016, 2028, 2028, 2028, 2040, 2040, 2052, 2052, 2064, 2064, 2064, 2077, 2077, 2077, 2077, 2089, 0, 0, 0, 2431, 2414, 2414, 2414, 2397, 2397, 2397, 2397, 2380, 2380, 2380, 2380, 2364, 2364, 2348, 2348, 2348, 2348, 2348, 2332, 2332, 2332, 2332, 2332, 2316, 2316, 2300, 2300, 2300, 2300, 2300, 2285, 2285, 2285, 2270, 2270, 2270, 2270, 2255, 2255, 2255, 2255, 2240, 2240, 2240, 2240, 2225, 2225, 2225, 2225, 2211, 2211, 2197, 2197, 2197, 2183, 2183, 2183, 2183, 2169, 2169, 2169, 2169, 2155, 2155, 2155, 2142, 2142, 2142, 2129, 2129, 2129, 2129, 2115, 2115, 2115, 2115, 2102, 2102, 2102, 2102, 2089, 2089, 2089, 2077, 2077, 2077, 2077, 2077, 2064, 2064, 2064, 2064, 2064, 2052, 2052, 2052, 2040, 2040, 2040, 2028, 2028, 2028, 2028, 2016, 2016, 2016, 2004, 2004, 2004, 2004, 1992, 1992, 1981, 1981, 1981, 1981, 1969, 1969, 1969, 1969, 1958, 1958, 1958, 1947, 1947, 1947, 1936, 1936, 1936, 1925, 1925, 1925, 1925, 1925, 1914, 1914, 1914, 1903, 1903, 1903, 1893, 1893, 1893, 1893, 1882, 1882, 1882, 1882, 1882, 1872, 1872, 1872, 1862, 1862, 1862, 1862, 1862, 1852, 1852, 1852, 1842, 1842, 1842, 1832, 1832, 1822, 1822, 1822, 1822, 1813, 1813, 1813, 1803, 1803, 1803, 1803, 1803, 1803, 1803, 1803, 1803, 1803, 1803, 1813, 1813, 1813, 1813, 1822, 1822, 1832, 1842, 1842, 1852, 1852, 1852, 1852, 1852, 1862, 1862, 1862, 1862, 1852, 1852, 1852, 1842, 1842, 1842, 1842, 1842, 1842, 1842, 1842, 1842, 1832, 1832, 1832, 1832, 1832, 1822, 1822, 1822, 1822, 1813, 1813, 0, 0, 1822, 1803, 1803, 1794, 1794, 1794, 1794, 1784, 1784, 1775, 1766, 1766, 1766, 1766, 1757, 1757, 1757, 1748, 1748, 1739, 1739, 1739, 1739, 1739, 0, 0, 1730, 1721, 1721, 1721, 1721, 1713, 1721, 1721, 1730, 1713, 1704, 1704, 1704, 0, 0, 0, 0, 0, 0, 0, 0, 0, 0, 0, 0, 0, 0, 0, 0, 0, 0, 0, 0, 0, 0, 0, 0, 1969, 0, 0, 0, 0, 0, 0, 1947, 1981, 2004, 1981, 0, 0, 0, 0, 0, 0, 0, 0, 0, 0, 0, 0, 1578, 1578, 1578, 1578, 0, 0, 0, 0, 0, 0, 0, 1578, 1601, 0, 0, 0, 0, 0, 0, 1903, 0, 0, 0, 1631, 1601, 1586, 1608, 1616, 1623, 1655, 0, 0, 1852, 1893, 1893, 1893, 1893, 1893, 1893, 1882, 1882, 0, 0, 0, 0, 0, 0, 0, 0, 0, 1543, 1529, 0, 0, 0, 0, 0, 0, 0, 1803, 1822, 1832, 1822, 1822, 1822, 1822, 1822, 1822, 1822, 1822, 1822, 1813, 1813, 1813, 1813, 1794, 0, 0, 0, 0, 0, 1457, 1483, 1470, 0, 0, 1476, 1470, 1476, 1476, 1483, 1464, 1470, 1470, 1470, 1457, 0, 0, 0, 0, 0, 0, 0, 0, 0, 0, 0, 0, 1766, 1766, 1766, 1766,
       4402, 4402, 4402, 4402, 4402, 4346, 4346, 4346, 4346, 4346, 4346, 4291, 0, 0, 0, 0, 0, 0, 0, 0, 0, 0, 0, 0, 0, 0, 0, 0, 0, 0, 0, 0, 0, 2040, 2028, 2028, 2028, 2016, 2016, 2016, 2016, 2016, 2004, 1992, 1992, 1981, 1981, 1981, 1981, 1981, 1981, 1981, 1981, 1981, 1981, 1981, 1981, 1981, 1969, 1969, 1969, 1969, 1969, 1969, 1969, 1969, 1969, 1969, 1969, 1969, 1958, 1958, 1958, 1958, 1947, 1947, 1947, 1947, 1947, 1947, 1958, 1947, 1947, 1947, 1947, 1947, 1958, 1958, 1969, 1969, 1969, 1981, 1981, 1992, 1992, 2004, 2004, 2016, 2016, 2016, 2016, 2016, 2028, 2028, 2028, 2040, 2040, 2052, 2052, 2064, 2064, 2064, 2064, 2077, 2077, 2077, 2077, 0, 0, 0, 0, 2414, 2414, 2414, 2397, 2397, 2397, 2397, 2397, 2380, 2380, 2380, 2364, 2364, 2364, 2348, 2348, 2348, 2348, 2332, 2332, 2332, 2332, 2332, 2316, 2316, 2316, 2300, 2300, 2300, 2300, 2300, 2285, 2285, 2285, 2270, 2270, 2270, 2255, 2255, 2255, 2240, 2240, 2240, 2240, 2240, 2225, 2225, 2225, 2225, 2211, 2211, 2197, 2197, 2183, 2183, 2183, 2183, 2183, 2169, 2169, 2169, 2169, 2155, 2155, 2155, 2142, 2142, 2142, 2129, 2129, 2129, 2129, 2115, 2115, 2115, 2115, 2102, 2102, 2102, 2102, 2089, 2089, 2089, 2077, 2077, 2077, 2077, 2077, 2064, 2064, 2064, 2064, 2064, 2052, 2052, 2052, 2040, 2040, 2040, 2028, 2028, 2028, 2028, 2016, 2016, 2016, 2004, 2004, 2004, 2004, 1992, 1992, 1981, 1981, 1981, 1981, 1969, 1969, 1969, 1969, 1958, 1958, 1958, 1947, 1947, 1947, 1936, 1936, 1936, 1925, 1925, 1925, 1925, 1914, 1914, 1914, 1903, 1903, 1903, 1893, 1893, 1893, 1893, 1893, 1882, 1882, 1882, 1882, 1882, 1872, 1872, 1872, 1862, 1862, 1862, 1862, 1862, 1852, 1852, 1852, 1842, 1842, 1842, 1832, 1832, 1822, 1822, 1822, 1813, 1813, 1813, 1813, 1803, 1803, 1803, 1803, 1803, 1803, 1803, 1803, 1803, 1803, 1803, 1813, 1813, 1813, 1813, 1822, 1832, 1832, 1842, 1842, 1852, 1852, 1852, 1852, 1852, 1852, 1852, 1852, 1852, 1852, 1852, 1852, 1842, 1842, 1842, 1842, 1842, 1842, 1842, 1842, 1842, 1842, 1842, 1832, 1842, 1832, 1832, 1832, 1832, 1832, 1822, 1822, 1832, 1852, 0, 0, 1822, 1822, 1803, 1794, 1794, 1794, 1784, 1775, 1766, 0, 0, 0, 0, 0, 0, 0, 0, 1739, 1704, 1696, 0, 0, 0, 0, 0, 0, 0, 0, 0, 0, 0, 2597, 0, 0, 1766, 1739, 1748, 0, 0, 0, 0, 0, 0, 0, 0, 0, 0, 0, 0, 0, 0, 0, 0, 0, 0, 2028, 0, 0, 0, 0, 0, 2004, 2028, 2028, 0, 0, 0, 0, 2040, 2016, 2004, 2004, 2004, 2004, 1992, 1992, 1992, 0, 0, 0, 0, 0, 0, 0, 0, 0, 0, 0, 0, 0, 0, 0, 0, 0, 0, 1925, 1936, 1936, 1936, 1947, 1947, 1936, 1936, 1936, 1936, 1936, 1936, 1936, 0, 0, 0, 1936, 1936, 1925, 1925, 1925, 1914, 1903, 1903, 1903, 1903, 1893, 1893, 1882, 1882, 1882, 1882, 1872, 0, 0, 1832, 1852, 1813, 0, 0, 0, 1730, 1757, 1775, 1813, 1842, 1842, 1842, 1832, 1832, 1832, 1832, 1832, 1832, 1822, 1822, 1822, 1822, 1822, 1822, 1822, 1813, 1813, 1813, 1803, 1803, 0, 0, 0, 0, 0, 0, 0, 0, 0, 0, 1784, 1784, 1784, 1775, 0, 0, 0, 0, 0, 0, 0, 0, 1775, 1748, 0, 0, 0, 0, 1766, 1766, 1766, 1766, 1766, 1757, 1757,
       4402, 4402, 4402, 4402, 4402, 4346, 4346, 4346, 4346, 4346, 4291, 4291, 0, 0, 0, 0, 0, 0, 0, 0, 0, 0, 0, 0, 0, 0, 0, 0, 0, 0, 0, 0, 0, 2040, 2028, 2028, 2028, 2016, 2016, 2016, 2016, 2016, 2004, 2004, 1992, 1992, 1992, 1992, 1992, 1981, 1981, 1981, 1981, 1981, 1981, 1981, 1981, 1981, 1969, 1981, 1981, 1969, 1969, 1969, 1969, 1969, 1969, 1969, 1969, 1969, 1958, 1958, 1958, 1958, 1958, 1947, 1947, 1947, 1947, 1947, 1958, 1947, 1947, 1947, 1947, 1958, 1958, 1958, 1969, 1969, 1969, 1981, 1981, 1981, 1992, 1992, 2004, 2004, 2016, 2016, 2016, 2016, 2028, 2028, 2028, 2028, 2040, 2040, 2052, 2052, 2064, 2064, 2064, 2077, 2077, 2077, 2077, 2077, 0, 0, 0, 0, 2414, 2414, 2397, 2397, 2397, 2397, 2397, 2397, 2397, 2380, 2380, 2364, 2364, 2348, 2348, 2348, 2348, 2332, 2332, 2332, 2332, 2332, 2332, 2316, 2316, 2316, 2300, 2300, 2300, 2300, 2285, 2285, 2285, 2285, 2270, 2270, 2270, 2255, 2255, 2240, 2240, 2240, 2240, 2240, 2225, 2225, 2225, 2211, 2211, 2211, 2197, 2197, 2183, 2183, 2183, 2183, 2183, 2169, 2169, 2169, 2169, 2155, 2155, 2155, 2155, 2142, 2142, 2142, 2129, 2129, 2129, 2115, 2115, 2115, 2115, 2102, 2102, 2102, 2089, 2089, 2089, 2089, 2077, 2077, 2077, 2077, 2077, 2064, 2064, 2064, 2064, 2064, 2052, 2052, 2052, 2040, 2040, 2040, 2028, 2028, 2028, 2028, 2016, 2016, 2004, 2004, 2004, 2004, 2004, 1992, 1992, 1981, 1981, 1981, 1981, 1969, 1969, 1969, 1969, 1969, 1958, 1958, 1958, 1947, 1936, 1936, 1936, 1936, 1925, 1925, 1925, 1925, 1925, 1914, 1914, 1903, 1903, 1903, 1893, 1893, 1893, 1893, 1893, 1882, 1882, 1882, 1882, 1882, 1872, 1872, 1872, 1862, 1862, 1862, 1862, 1852, 1852, 1852, 1852, 1842, 1842, 1832, 1832, 1832, 1822, 1822, 1822, 1822, 1813, 1813, 1813, 1813, 1803, 1803, 1803, 1803, 1803, 1803, 1803, 1803, 1803, 1803, 1813, 1813, 1813, 1813, 1822, 1832, 1832, 1842, 1842, 1852, 1852, 1852, 1852, 1852, 1852, 1852, 1852, 1852, 1852, 1842, 1842, 1842, 1842, 1842, 1872, 0, 0, 0, 0, 0, 0, 0, 0, 0, 0, 0, 0, 0, 0, 0, 0, 0, 1872, 0, 0, 0, 0, 0, 0, 0, 1803, 1794, 1784, 1775, 0, 0, 0, 0, 0, 0, 0, 0, 0, 0, 0, 0, 0, 0, 0, 0, 2578, 2578, 2617, 2597, 2617, 2637, 2637, 2617, 2617, 2637, 2637, 2637, 2617, 0, 0, 0, 0, 0, 0, 0, 0, 0, 2077, 2064, 2077, 2077, 2077, 0, 0, 0, 2040, 2040, 2028, 2028, 2028, 2028, 2028, 2028, 2028, 2052, 0, 0, 0, 2016, 2016, 2016, 2004, 2004, 2004, 2004, 1992, 1992, 0, 0, 0, 0, 0, 0, 0, 1936, 1925, 1936, 1958, 1969, 1969, 1969, 1969, 1969, 1969, 1958, 1958, 1958, 1947, 1947, 1936, 1936, 1936, 1936, 1936, 1925, 1925, 1925, 1925, 1925, 1925, 1925, 1925, 1925, 1925, 1925, 1925, 1914, 1914, 1903, 1903, 1903, 1893, 1893, 1882, 1882, 1882, 1882, 1872, 1872, 1872, 1862, 1862, 1852, 1852, 1852, 1852, 1852, 1852, 1852, 1842, 1842, 1842, 1842, 1842, 1842, 1842, 1832, 1832, 1832, 1832, 1832, 1832, 1822, 1822, 1822, 1822, 1822, 1813, 1813, 1813, 1813, 1813, 0, 0, 1803, 0, 0, 1822, 0, 0, 1794, 1784, 1784, 1784, 1775, 1775, 1775, 1775, 1775, 1775, 1775, 1775, 1775, 1775, 1766, 1766, 1766, 1766, 1766, 1766, 1766, 1757, 1757, 1757, 1757, 1748,
       4402, 4402, 4402, 4402, 4346, 4346, 4346, 4346, 4346, 4291, 4291, 4291, 0, 0, 0, 0, 0, 0, 0, 0, 0, 0, 0, 0, 0, 0, 0, 0, 0, 0, 0, 0, 0, 0, 0, 0, 0, 2028, 2016, 2016, 2016, 2016, 2004, 2004, 2004, 1992, 1992, 1992, 1992, 1981, 1981, 1992, 1981, 1981, 1981, 1981, 1981, 1981, 1981, 1981, 1981, 1981, 1969, 1969, 1969, 1969, 1969, 1969, 1981, 1969, 1969, 1969, 1969, 1969, 1958, 1958, 1947, 1947, 1947, 1958, 1958, 1958, 1947, 1958, 1958, 1958, 1958, 1958, 1969, 1969, 1969, 1969, 1981, 1981, 1992, 1992, 2004, 2004, 2016, 2016, 2016, 2016, 2028, 2028, 2028, 2028, 2028, 2040, 2040, 2052, 2052, 2064, 2064, 2077, 2077, 2077, 2077, 2077, 0, 0, 0, 0, 2414, 2414, 2414, 2397, 2397, 2397, 2397, 2397, 2397, 2380, 2380, 2364, 2364, 2348, 2348, 2348, 2348, 2348, 2332, 2332, 2332, 2332, 2332, 2332, 2332, 2316, 2316, 2316, 2300, 2300, 2300, 2285, 2285, 2285, 2270, 2270, 2270, 2255, 2255, 2255, 2240, 2240, 2240, 2240, 2225, 2225, 2225, 2225, 2211, 2211, 2197, 2197, 2197, 2197, 2183, 2183, 2183, 2169, 2169, 2169, 2169, 2169, 2155, 2155, 2155, 2142, 2142, 2142, 2129, 2129, 2129, 2115, 2115, 2115, 2115, 2115, 2102, 2102, 2102, 2089, 2089, 2089, 2089, 2077, 2077, 2077, 2077, 2064, 2064, 2064, 2064, 2064, 2052, 2052, 2052, 2040, 2040, 2040, 2028, 2028, 2028, 2028, 2016, 2016, 2016, 2004, 2004, 2004, 2004, 2004, 1992, 1981, 1981, 1981, 1981, 1981, 1969, 1969, 1969, 1969, 1958, 1958, 1958, 1947, 1936, 1936, 1936, 1936, 1925, 1925, 1925, 1925, 1925, 1914, 1914, 1914, 1903, 1903, 1903, 1893, 1893, 1893, 1893, 1882, 1882, 1882, 1882, 1882, 1872, 1872, 1872, 1862, 1862, 1862, 1852, 1852, 1852, 1852, 1842, 1842, 1842, 1832, 1832, 1832, 1822, 1822, 1822, 1822, 1813, 1813, 1813, 1813, 1803, 1803, 1803, 1803, 1803, 1803, 1803, 1803, 1803, 1803, 1813, 1813, 1813, 1822, 1822, 1832, 1832, 1842, 1842, 1842, 1852, 1852, 1852, 1852, 1852, 1852, 1852, 1842, 1842, 1832, 1842, 0, 0, 0, 0, 0, 2811, 2882, 0, 0, 2765, 2700, 0, 0, 2858, 2834, 0, 0, 0, 0, 0, 0, 0, 0, 0, 0, 0, 0, 0, 0, 0, 0, 0, 0, 0, 0, 0, 0, 0, 0, 0, 2721, 0, 0, 0, 2679, 2658, 2658, 2658, 2658, 2658, 2658, 2658, 2658, 2658, 2658, 2637, 2637, 2637, 2637, 2637, 2637, 2617, 0, 0, 0, 0, 0, 0, 0, 0, 0, 2077, 2064, 2064, 2064, 2064, 2064, 2064, 2052, 2040, 2040, 2028, 2028, 2028, 2028, 2028, 2028, 2028, 2028, 2040, 2040, 2016, 2016, 2016, 2016, 2004, 2004, 2004, 2004, 2004, 2004, 1992, 1992, 0, 0, 0, 1981, 1981, 1981, 1981, 1981, 1969, 1969, 1969, 1969, 1969, 1969, 1958, 1958, 1958, 1958, 1947, 1947, 1947, 1936, 1936, 1936, 1936, 1936, 1925, 1925, 1925, 1925, 1925, 1925, 1925, 1925, 1925, 1925, 1925, 1914, 1914, 1903, 1903, 1903, 1893, 1893, 1882, 1882, 1882, 1882, 1882, 1872, 1872, 1862, 1862, 1862, 1852, 1852, 1852, 1852, 1852, 1852, 1842, 1842, 1842, 1842, 1842, 1842, 1842, 1832, 1832, 1832, 1832, 1832, 1832, 1832, 1822, 1822, 1822, 1822, 1813, 1813, 1813, 1813, 1813, 1813, 1803, 1803, 1803, 1803, 1803, 1803, 1803, 1794, 1784, 1784, 1784, 1775, 1775, 1775, 1775, 1775, 1775, 1775, 1775, 1775, 1766, 1766, 1766, 1766, 1757, 1757, 1757, 1757, 1757, 1757, 1757, 1748, 1748,
       4402, 4402, 4402, 4402, 4346, 4346, 4346, 4346, 4346, 4346, 4291, 4291, 4291, 0, 0, 0, 0, 0, 0, 0, 0, 0, 0, 0, 0, 0, 0, 0, 0, 0, 0, 0, 0, 0, 0, 0, 0, 2016, 2016, 2016, 2016, 2016, 2004, 2004, 2004, 1992, 1992, 1992, 1992, 1981, 1981, 1981, 1981, 1981, 1981, 1981, 1981, 1981, 1981, 1981, 1981, 1981, 1981, 1981, 1981, 1981, 1981, 1981, 1981, 1981, 1969, 1969, 1969, 1969, 1958, 1958, 1958, 1958, 1958, 1958, 1958, 1958, 1958, 1958, 1958, 1958, 1958, 1958, 1969, 1969, 1969, 1969, 1981, 1981, 1992, 1992, 1992, 2004, 2016, 2016, 2016, 2016, 2028, 2028, 2028, 2028, 2028, 2040, 2040, 2052, 2052, 2064, 2077, 2077, 2077, 2077, 2077, 2077, 2077, 0, 0, 0, 0, 0, 2414, 2397, 2397, 2397, 2397, 2397, 2397, 2397, 2380, 2364, 2364, 2364, 2348, 2348, 2348, 2348, 2348, 2348, 2348, 2348, 2332, 2332, 2332, 2332, 2316, 2316, 2316, 2300, 2300, 2300, 2285, 2285, 2285, 2270, 2270, 2270, 2270, 2255, 2255, 2240, 2240, 2240, 2225, 2225, 2225, 2225, 2211, 2211, 2211, 2197, 2197, 2197, 2183, 2183, 2183, 2183, 2169, 2169, 2169, 2169, 2169, 2155, 2155, 2155, 2155, 2142, 2129, 2129, 2129, 2129, 2115, 2115, 2115, 2115, 2115, 2102, 2102, 2102, 2089, 2089, 2089, 2089, 2077, 2077, 2077, 0, 0, 2064, 2064, 2064, 2052, 2052, 2052, 2040, 2040, 2040, 2028, 2028, 2028, 2028, 2016, 2016, 2016, 2004, 2004, 2004, 2004, 2004, 1992, 1992, 1981, 1981, 1981, 1981, 1969, 1969, 1969, 1969, 1958, 1958, 1958, 1947, 1947, 1947, 1936, 1936, 1936, 1925, 1925, 1925, 1925, 1925, 1914, 1914, 1914, 1903, 1903, 1903, 1893, 1893, 1893, 1893, 1882, 1882, 1882, 1882, 1872, 1872, 1872, 1862, 1862, 1862, 1852, 1852, 1852, 1852, 1842, 1842, 1842, 1832, 1832, 1822, 1822, 1822, 1822, 1822, 1813, 1813, 1813, 1813, 1813, 1803, 1803, 1803, 1803, 1803, 1803, 1803, 1803, 1803, 1803, 1813, 1813, 1813, 1822, 1822, 1832, 1832, 1842, 1842, 0, 0, 1852, 1852, 1852, 1852, 1842, 1852, 0, 0, 0, 2882, 2906, 2906, 2906, 2906, 2882, 2882, 2858, 2858, 2858, 2858, 2858, 2858, 2858, 2834, 2834, 2834, 2834, 2811, 2811, 0, 0, 0, 0, 0, 0, 0, 0, 0, 0, 0, 0, 0, 0, 0, 2743, 2743, 0, 0, 0, 2721, 2700, 2700, 2700, 2679, 2679, 2679, 2679, 2658, 2658, 2658, 2658, 2658, 2658, 2658, 2637, 2637, 2637, 2637, 2637, 2617, 2617, 0, 0, 0, 0, 0, 0, 0, 0, 2077, 2064, 2064, 2064, 2064, 2064, 2064, 2064, 2052, 2040, 2040, 2028, 2028, 2028, 2028, 2016, 2016, 2028, 2028, 2016, 2016, 2016, 2016, 2016, 2016, 2004, 2004, 2004, 2004, 2004, 2004, 1992, 1992, 1981, 1981, 1981, 1981, 1981, 1981, 1981, 1969, 1969, 1969, 1969, 1969, 1969, 1969, 1958, 1958, 1958, 1947, 1947, 1936, 1936, 1936, 1936, 1936, 1936, 1925, 1925, 1925, 1925, 1925, 1925, 1925, 1925, 1925, 1925, 1925, 1925, 1914, 1914, 1903, 1903, 1903, 1893, 1893, 1882, 1882, 1882, 1882, 1882, 1882, 1872, 1872, 1862, 1862, 1852, 1852, 1852, 1852, 1852, 1852, 1852, 1852, 1842, 1842, 1842, 1842, 1842, 1832, 1832, 1832, 1832, 1832, 1832, 1822, 1822, 1822, 1822, 1813, 1813, 1813, 1813, 1813, 1813, 1803, 1803, 1803, 1803, 1803, 1803, 1803, 1794, 1794, 1784, 1784, 1784, 1775, 1775, 1775, 1775, 1775, 1775, 1775, 1766, 1766, 1766, 1766, 1757, 1766, 1757, 1757, 1757, 1757, 1757, 1757, 1757, 1748, 1748,
       4402, 4402, 4402, 4402, 4346, 4346, 4346, 4346, 4346, 4346, 4291, 4291, 4291, 4238, 4238, 0, 0, 4136, 0, 0, 0, 0, 0, 0, 0, 0, 0, 0, 0, 0, 0, 0, 0, 0, 0, 0, 0, 2028, 2016, 2016, 2016, 2016, 2004, 2004, 2004, 1992, 1992, 1992, 1992, 1981, 1981, 1981, 1981, 1981, 1981, 1981, 1981, 1981, 1981, 1981, 1981, 1981, 1981, 1981, 1981, 1981, 1981, 1981, 1981, 1981, 1981, 1969, 1969, 1969, 1958, 1958, 1958, 1958, 1958, 1958, 1958, 1958, 1958, 1958, 1958, 1958, 1958, 1958, 1969, 1969, 1969, 1969, 1981, 1981, 1981, 1992, 1992, 2004, 2016, 2016, 2016, 2016, 2016, 2016, 2028, 2028, 2028, 2028, 2040, 2040, 2052, 2064, 2064, 2077, 2077, 2077, 2077, 2077, 2077, 0, 0, 0, 0, 0, 2414, 2414, 2397, 2414, 2397, 2414, 2397, 2397, 2380, 2380, 2364, 2364, 2364, 2348, 2348, 2348, 2348, 2348, 2348, 2348, 2348, 2348, 2348, 2348, 2332, 2332, 2332, 2316, 2316, 2300, 2300, 2285, 2285, 2285, 2270, 2270, 2270, 2255, 2255, 2255, 2240, 2240, 2225, 2225, 2225, 2225, 2211, 2211, 2211, 2211, 2211, 2197, 2197, 2183, 2183, 2183, 2169, 2169, 2169, 2169, 2169, 2155, 2155, 0, 0, 0, 0, 0, 0, 0, 0, 2115, 2115, 2115, 2115, 2102, 2102, 2102, 2089, 2089, 2089, 2089, 0, 0, 0, 0, 0, 0, 0, 0, 0, 0, 2052, 2040, 2040, 2040, 2028, 2028, 2028, 2028, 2016, 2016, 2016, 2016, 2016, 2004, 2004, 2004, 2004, 1992, 1992, 1981, 1981, 1981, 1969, 1969, 1969, 1969, 1969, 1958, 1958, 1958, 1947, 1947, 1936, 1936, 1936, 1925, 1925, 1925, 1925, 1925, 1925, 1914, 1914, 1914, 1903, 1903, 1903, 1893, 1893, 1893, 1882, 1882, 1882, 1882, 1882, 1872, 1872, 1862, 1862, 1862, 1852, 1852, 1852, 1852, 1842, 1842, 1842, 1832, 1832, 1822, 1822, 1822, 1822, 1813, 1813, 1813, 1813, 1813, 1813, 1803, 1803, 1803, 1803, 1803, 1803, 1803, 1803, 1803, 1803, 1813, 1813, 1813, 1822, 1822, 0, 0, 0, 0, 0, 0, 0, 0, 0, 0, 1832, 0, 0, 0, 0, 0, 2906, 2882, 2882, 2882, 2882, 2858, 2858, 2858, 2858, 2858, 2834, 2858, 2834, 2834, 2834, 2834, 2811, 2811, 2811, 0, 0, 0, 0, 0, 0, 0, 2743, 2743, 2743, 2743, 2765, 2743, 2743, 2743, 2743, 2743, 2721, 2721, 2721, 2721, 2700, 2700, 2700, 2679, 2679, 2679, 2679, 2679, 2658, 2658, 2658, 2658, 2658, 2658, 2658, 2637, 2637, 2637, 2637, 2617, 2597, 0, 0, 0, 0, 0, 0, 2064, 2064, 2064, 2064, 2064, 2064, 2064, 2064, 2052, 2052, 2052, 2040, 2040, 2028, 2028, 2028, 2028, 2016, 2016, 2016, 2016, 2016, 2016, 2016, 2016, 2016, 2016, 2004, 2004, 2004, 2004, 1992, 1992, 1992, 1992, 1981, 1981, 1981, 1981, 1981, 1981, 1981, 1969, 1969, 1969, 1969, 1969, 1969, 1958, 1958, 1958, 1947, 1947, 1947, 1936, 1936, 1936, 1936, 1936, 1936, 1925, 1925, 1925, 1925, 1925, 1925, 1914, 1914, 1914, 1914, 1925, 1925, 1914, 1914, 1903, 1903, 1903, 1893, 1893, 1882, 1882, 1882, 1882, 1882, 1882, 1872, 1872, 1862, 1862, 1862, 1862, 1852, 1852, 1852, 1852, 1852, 1852, 1852, 1842, 1842, 1842, 1842, 1842, 1832, 1832, 1832, 1832, 1822, 1822, 1822, 1822, 1822, 1813, 1813, 1813, 1813, 1813, 1813, 1803, 1803, 1803, 1803, 1803, 1794, 1794, 1794, 1784, 1784, 1784, 1784, 1775, 1775, 1775, 1775, 1766, 1766, 1766, 1766, 1766, 1766, 1766, 1766, 1766, 1757, 1757, 1757, 1757, 1757, 1757, 1757, 1748, 1748,
       4402, 4402, 4402, 4402, 4346, 4346, 4346, 4346, 4291, 4291, 4291, 4291, 4291, 4238, 4238, 4186, 4186, 4186, 4186, 4186, 0, 0, 0, 0, 0, 0, 0, 0, 0, 0, 0, 0, 0, 0, 0, 0, 2028, 2028, 2016, 2016, 2016, 2016, 2016, 2004, 2004, 1992, 1992, 1992, 1992, 1981, 1981, 1981, 1981, 1981, 1981, 1981, 1981, 1981, 1981, 1981, 1981, 1981, 1981, 1981, 1981, 1981, 1981, 1981, 1981, 1981, 1981, 1969, 1969, 1969, 1958, 1958, 1958, 1958, 1958, 1958, 1958, 1958, 1958, 1958, 1958, 1958, 1958, 1958, 1958, 1969, 1969, 1969, 1981, 1981, 1981, 1992, 1992, 2004, 2004, 2016, 2016, 2016, 2016, 2016, 2028, 2028, 2028, 2028, 2040, 2040, 2052, 2064, 2064, 2064, 2077, 2077, 2077, 2077, 2077, 0, 0, 0, 0, 0, 0, 0, 2414, 0, 0, 2414, 2414, 2414, 2397, 2397, 2380, 2380, 2397, 2380, 2380, 2364, 2348, 2348, 2348, 2348, 2348, 2348, 0, 0, 2348, 2348, 2348, 2332, 2332, 2316, 2300, 2285, 2285, 2285, 2285, 2285, 2270, 2270, 2270, 2255, 2255, 2240, 2240, 2225, 2225, 2225, 2225, 2225, 2225, 2225, 2211, 2211, 2211, 2197, 2197, 2183, 2183, 2169, 2169, 2169, 2169, 2169, 2169, 0, 0, 0, 0, 0, 0, 0, 0, 0, 0, 0, 0, 0, 0, 0, 0, 0, 2142, 0, 0, 0, 0, 0, 0, 0, 0, 0, 0, 0, 0, 0, 0, 0, 2040, 2028, 2028, 2028, 2016, 2016, 2016, 2016, 2016, 2016, 2004, 2004, 2004, 1992, 1992, 1992, 1981, 1981, 1981, 1969, 1969, 1969, 1969, 1958, 1958, 1958, 1947, 1947, 1936, 1936, 1936, 1936, 1925, 1925, 1925, 1925, 1925, 1925, 1925, 1925, 1914, 1914, 1903, 1903, 1903, 1893, 1893, 1882, 1882, 1882, 1882, 1872, 1872, 1872, 1862, 1862, 1852, 1852, 1852, 1852, 1842, 1842, 1842, 1842, 1862, 1882, 1862, 1842, 1813, 1813, 1813, 1813, 1813, 1813, 1813, 1813, 1803, 1803, 1803, 1803, 1803, 1803, 1803, 1803, 1803, 0, 0, 0, 0, 0, 0, 0, 0, 0, 2931, 0, 0, 2811, 2834, 2743, 0, 0, 0, 2882, 2906, 2906, 2906, 2882, 2882, 2882, 2882, 2882, 2858, 2858, 2858, 2834, 2834, 2834, 2834, 2834, 2834, 2834, 2811, 2811, 2811, 2788, 2788, 2765, 2743, 2743, 2743, 2743, 2743, 2743, 2743, 2743, 2743, 2743, 2743, 2743, 2743, 2721, 2721, 2721, 2721, 2721, 2700, 2700, 2700, 2679, 2679, 2679, 2679, 2679, 2679, 2658, 2658, 2658, 2658, 2658, 2637, 2637, 2617, 2617, 2617, 2617, 2521, 0, 0, 0, 0, 0, 2089, 2077, 2064, 2064, 2064, 2064, 2064, 2052, 2052, 2052, 2052, 2052, 2040, 2040, 2028, 2028, 2028, 2028, 2028, 2028, 2016, 2016, 2016, 2016, 2016, 2016, 2016, 2016, 2004, 2004, 2004, 2004, 1992, 1992, 1992, 1981, 1981, 1981, 1981, 1981, 1981, 1981, 1969, 1969, 1969, 1969, 1969, 1969, 1958, 1958, 1958, 1958, 1947, 1947, 1947, 1936, 1936, 1936, 1936, 1936, 1925, 1925, 1925, 1925, 1914, 1914, 1914, 1914, 1914, 1914, 1914, 1914, 1914, 1914, 1903, 1903, 1903, 1893, 1893, 1893, 1882, 1882, 1882, 1882, 1882, 1882, 1872, 1872, 1862, 1862, 1862, 1862, 1862, 1862, 1862, 1862, 1852, 1852, 1852, 1852, 1842, 1842, 1842, 1842, 1842, 1832, 1832, 1832, 1822, 1822, 1822, 1822, 1822, 1813, 1813, 1813, 1813, 1813, 1803, 1803, 1803, 1803, 1803, 1794, 1794, 1794, 1794, 1784, 1784, 1784, 1784, 1775, 1775, 1775, 1775, 1766, 1766, 1766, 1766, 1766, 1766, 1766, 1766, 1766, 1757, 1757, 1757, 1757, 1757, 1757, 1757, 1748, 1748,
       4402, 4402, 4402, 4346, 4346, 4346, 4346, 4346, 4291, 4291, 4291, 4291, 4291, 4238, 4238, 4186, 4186, 4186, 4186, 4186, 0, 0, 0, 0, 0, 0, 0, 0, 0, 0, 0, 0, 0, 0, 0, 0, 2028, 2028, 2016, 2016, 2016, 2016, 2004, 2004, 2004, 1992, 1992, 1992, 1992, 1981, 1981, 1981, 1981, 1981, 1981, 1981, 1981, 1981, 1981, 1981, 1981, 1981, 1981, 1981, 1981, 1981, 1981, 1981, 1981, 1981, 1981, 1969, 1969, 1969, 1969, 1958, 1958, 1958, 1958, 1958, 1958, 1958, 1958, 1958, 1958, 1958, 1958, 1958, 1958, 1958, 1969, 1969, 1981, 1981, 1981, 1981, 1992, 1992, 2004, 2016, 2016, 2016, 2016, 2016, 2028, 2028, 2028, 2028, 2040, 2040, 2052, 2052, 2064, 2064, 2077, 2077, 2077, 2077, 2077, 2129, 2169, 2089, 2077, 0, 0, 0, 0, 0, 0, 2448, 2431, 2431, 2431, 2431, 2414, 2431, 2484, 2448, 2414, 2380, 2364, 2364, 2364, 2364, 2364, 0, 0, 0, 2364, 2364, 2364, 2364, 2364, 2348, 2332, 0, 0, 0, 0, 2285, 2285, 2285, 2240, 0, 0, 0, 0, 2240, 0, 0, 0, 0, 0, 0, 0, 0, 0, 0, 0, 0, 2211, 0, 0, 0, 2197, 0, 0, 0, 0, 0, 0, 0, 0, 0, 0, 0, 0, 0, 0, 0, 0, 0, 0, 0, 0, 0, 0, 0, 0, 0, 0, 0, 0, 0, 0, 0, 0, 0, 0, 0, 0, 2040, 2028, 2028, 2016, 2016, 2016, 2016, 2016, 2016, 2016, 2016, 2016, 0, 0, 0, 0, 1992, 1981, 1981, 1969, 1969, 1969, 1958, 1958, 1958, 1947, 1947, 1947, 1947, 1936, 1936, 1936, 1936, 1936, 1936, 1925, 1925, 1925, 1925, 1925, 1925, 1914, 1914, 1914, 1914, 1903, 1903, 1893, 0, 0, 1882, 1882, 1872, 1862, 1862, 1822, 0, 0, 0, 1842, 1872, 1903, 1936, 1969, 2004, 1992, 0, 0, 0, 0, 0, 0, 0, 0, 1882, 1842, 1813, 1803, 1803, 1803, 1803, 1803, 1803, 0, 0, 0, 0, 0, 0, 2858, 2931, 2931, 2931, 2906, 2882, 2858, 2906, 2906, 2882, 2834, 2882, 2906, 2906, 2906, 2906, 2882, 2882, 2882, 2882, 2882, 2858, 2858, 2834, 2834, 2834, 2834, 2834, 2834, 2834, 2811, 2811, 2811, 2811, 2811, 2788, 2788, 2765, 2743, 2743, 2743, 2743, 2743, 2743, 2743, 2743, 2743, 2743, 2743, 2743, 2743, 2721, 2721, 2721, 2721, 2721, 2721, 2700, 2700, 2700, 2700, 2700, 2679, 2679, 2679, 2679, 2658, 2658, 2658, 2637, 2637, 2637, 2617, 2617, 2617, 2617, 2380, 0, 0, 0, 0, 0, 0, 2064, 2064, 2064, 2064, 2064, 2052, 2052, 2052, 2052, 2052, 2052, 2040, 2040, 2028, 2028, 2028, 2028, 2028, 2028, 2016, 2016, 2016, 2016, 2016, 2016, 2016, 2004, 2004, 2004, 2004, 2004, 1992, 1992, 1992, 1981, 1981, 1981, 1981, 1981, 1981, 1981, 1969, 1969, 1969, 1969, 1969, 1969, 1969, 1969, 1958, 1958, 1958, 1958, 1947, 1936, 1936, 1936, 1936, 1925, 1925, 1925, 1925, 1925, 1914, 1914, 1914, 1914, 1914, 1914, 1914, 1914, 1914, 1914, 1903, 1903, 1893, 1872, 1872, 1862, 1872, 1882, 1882, 1882, 1882, 1872, 1872, 1872, 1862, 1862, 1862, 1862, 1862, 1852, 1872, 1903, 1903, 1852, 1852, 1852, 1842, 1842, 1842, 1842, 1842, 1832, 1832, 1832, 1822, 1822, 1822, 1822, 1813, 1813, 1813, 1803, 1813, 1803, 1803, 1803, 1803, 1803, 1803, 1794, 1794, 1794, 1794, 1784, 1775, 1775, 1775, 1775, 1775, 1775, 1775, 1766, 1766, 1766, 1766, 1766, 1766, 1766, 1757, 1757, 1757, 1757, 1757, 1757, 1757, 1757, 1748, 1748, 1748,
       4402, 4402, 4402, 4402, 4346, 4346, 4346, 4346, 4291, 4291, 4291, 4291, 4291, 4238, 4238, 4238, 4186, 4186, 4186, 4186, 4136, 4186, 0, 0, 0, 0, 0, 0, 0, 0, 0, 0, 0, 0, 0, 0, 2040, 2040, 2028, 2028, 2028, 2016, 2016, 2016, 2004, 2004, 2004, 1992, 1992, 1981, 1981, 1981, 1981, 1981, 1981, 1981, 1981, 1981, 1981, 1981, 1981, 1981, 1981, 1981, 1981, 1981, 1981, 1981, 1981, 1981, 1981, 1969, 1969, 1969, 1969, 1969, 1958, 1958, 1958, 1958, 1958, 1958, 1958, 1958, 1958, 1958, 1958, 1958, 1958, 1958, 1958, 1969, 1969, 1969, 1981, 1981, 1992, 1992, 2004, 2004, 2016, 2016, 2016, 2016, 2028, 2028, 2028, 2028, 2028, 2040, 2040, 2052, 2052, 2064, 2064, 2077, 2077, 2077, 2077, 2077, 2089, 2089, 2089, 0, 0, 0, 0, 0, 0, 2502, 2502, 2484, 2484, 2484, 2502, 2502, 2502, 2502, 2484, 2448, 2431, 2414, 2414, 2414, 2414, 0, 0, 2431, 2414, 2414, 2397, 2414, 2414, 0, 0, 0, 0, 0, 0, 2332, 2316, 2285, 2270, 0, 0, 0, 0, 2285, 0, 0, 0, 0, 0, 0, 0, 0, 0, 0, 0, 0, 2285, 0, 0, 0, 2285, 0, 0, 0, 0, 0, 0, 0, 0, 0, 0, 0, 0, 0, 0, 0, 0, 2225, 0, 0, 0, 0, 0, 0, 0, 0, 0, 0, 0, 0, 0, 0, 0, 0, 0, 0, 0, 0, 0, 2040, 2040, 2028, 0, 0, 0, 0, 0, 2052, 0, 0, 0, 0, 0, 0, 2016, 1992, 1981, 1969, 1969, 1958, 1958, 1958, 1958, 1947, 1947, 1947, 1936, 1936, 1936, 1936, 1936, 1936, 1936, 1936, 1936, 1936, 1936, 1925, 1925, 1936, 1936, 1936, 1936, 1936, 1925, 0, 0, 0, 0, 1882, 0, 0, 0, 0, 0, 0, 0, 0, 2052, 2077, 2077, 2077, 2077, 2064, 2016, 2064, 2102, 2102, 2102, 2102, 2102, 0, 0, 0, 0, 1822, 1803, 0, 0, 0, 0, 0, 0, 0, 2931, 2906, 2906, 2906, 2906, 2906, 2906, 2906, 2906, 2882, 2906, 2906, 2882, 2906, 2906, 2882, 2882, 2882, 2858, 2858, 2858, 2858, 2858, 2858, 2834, 2834, 2834, 2834, 2834, 2834, 2834, 2811, 2811, 2811, 2811, 2811, 2788, 2788, 2788, 2765, 2765, 2765, 2765, 2765, 2743, 2743, 2743, 2743, 2743, 2743, 2743, 2743, 2743, 2721, 2721, 2721, 2721, 2721, 2721, 2700, 2700, 2700, 2700, 2700, 2679, 2679, 2679, 2679, 2658, 2658, 2658, 2637, 2637, 2617, 2617, 2617, 2617, 2597, 2431, 0, 0, 0, 0, 0, 0, 2064, 2064, 2064, 2064, 2064, 2052, 2052, 2052, 2052, 2052, 2040, 2040, 2040, 2028, 2028, 2028, 2028, 2028, 2028, 2016, 2016, 2016, 2016, 2016, 2016, 2016, 2016, 2004, 2004, 2004, 2004, 1992, 1992, 1992, 1981, 1981, 1981, 1981, 1981, 1981, 1981, 1981, 1969, 1969, 1969, 1969, 1969, 1969, 1969, 1969, 1958, 1958, 1958, 1947, 1947, 1936, 1936, 1936, 1936, 1925, 1925, 1925, 1925, 1914, 1914, 1925, 1925, 1914, 1914, 1914, 1914, 1925, 1925, 1925, 1903, 0, 0, 0, 0, 0, 1882, 1893, 1882, 1882, 1882, 1882, 1872, 1872, 1862, 1852, 1872, 1903, 1914, 1958, 0, 0, 0, 0, 1842, 1842, 1832, 1842, 1832, 1832, 1832, 1832, 0, 0, 0, 0, 1822, 1813, 1813, 1813, 1803, 1803, 0, 0, 0, 1813, 1803, 1803, 1794, 1794, 1794, 1794, 1784, 1784, 1775, 1784, 1775, 1775, 1775, 1766, 1766, 1766, 1766, 1766, 1766, 1766, 1766, 1757, 1757, 1757, 1757, 1757, 1757, 1748, 1748, 1748, 1748, 1739,
       4402, 4402, 4402, 4402, 4346, 4346, 4346, 4291, 4291, 4291, 4291, 4291, 4291, 4238, 4238, 4238, 4238, 4186, 4186, 4186, 4186, 4186, 0, 0, 0, 0, 0, 0, 0, 0, 0, 0, 0, 0, 0, 0, 2052, 2040, 2028, 2028, 2028, 2028, 2016, 2016, 2004, 2004, 1992, 1981, 1981, 1981, 1981, 1981, 1981, 1981, 1981, 1981, 1981, 1981, 1981, 1981, 1981, 1981, 1981, 1981, 1981, 1981, 1981, 1981, 1981, 1981, 1981, 1969, 1969, 1969, 1969, 1969, 1969, 1958, 1958, 1958, 1958, 1958, 1958, 1958, 1958, 1958, 1958, 1958, 1958, 1958, 1958, 1958, 1969, 1969, 1969, 1981, 1981, 1992, 2004, 2004, 2016, 2016, 2016, 2016, 2028, 2028, 2028, 2028, 2028, 2040, 2040, 2052, 2064, 2064, 2077, 2077, 2077, 2077, 2077, 2089, 2089, 2102, 2102, 2102, 0, 0, 0, 2558, 2558, 2558, 2539, 2521, 2521, 2502, 2502, 2502, 2502, 2502, 2502, 2484, 2484, 2484, 2484, 2466, 2448, 2448, 2448, 2448, 2431, 2431, 2431, 2431, 0, 0, 0, 0, 0, 0, 0, 2380, 0, 0, 2348, 0, 0, 0, 2364, 2348, 0, 0, 0, 2364, 0, 0, 2332, 0, 0, 0, 2316, 2316, 2316, 2316, 2300, 2300, 2300, 2300, 0, 0, 0, 0, 0, 0, 0, 2270, 2255, 2255, 2255, 2255, 2255, 2255, 2240, 2240, 2240, 0, 0, 0, 0, 2211, 2197, 2197, 2197, 2183, 0, 0, 0, 0, 0, 0, 0, 0, 0, 0, 0, 2089, 2102, 2089, 0, 0, 0, 0, 0, 2102, 0, 0, 0, 0, 0, 0, 2077, 2040, 2016, 1981, 1969, 1969, 1958, 1958, 1958, 1947, 1947, 1947, 1947, 1936, 1936, 1936, 1936, 1936, 1936, 1936, 1936, 1936, 1936, 1936, 1936, 1947, 1947, 1947, 1958, 1958, 1969, 0, 0, 0, 0, 1925, 0, 0, 0, 0, 0, 2052, 2052, 2064, 2064, 2064, 2077, 2077, 2077, 2077, 0, 0, 0, 0, 2089, 2102, 2089, 0, 0, 0, 0, 0, 0, 0, 0, 0, 0, 0, 0, 0, 2906, 2906, 2906, 2906, 2906, 2906, 2906, 2906, 2906, 2906, 2906, 2882, 2882, 2882, 2882, 2882, 2882, 2882, 2882, 2858, 2858, 2858, 2858, 2858, 2834, 2834, 2834, 2834, 2834, 2834, 2834, 2811, 2811, 2811, 2811, 2811, 2788, 2788, 2788, 2765, 2765, 2765, 2765, 2765, 2765, 2743, 2743, 2743, 2743, 2743, 2743, 2743, 2743, 2721, 2721, 2721, 2721, 2721, 2721, 2700, 2700, 2700, 2700, 2700, 2679, 2679, 2679, 2658, 2658, 2658, 2637, 2637, 2637, 2617, 2617, 2597, 2617, 2597, 2448, 0, 0, 0, 0, 0, 0, 2064, 2064, 2064, 2064, 2064, 2052, 2052, 2052, 2052, 2052, 2052, 2040, 2040, 2040, 2028, 2028, 2028, 2028, 2028, 2028, 2016, 2016, 2016, 2016, 2016, 2016, 2016, 2004, 2004, 2004, 2004, 1992, 1992, 1992, 1992, 1981, 1981, 1981, 1981, 1981, 1981, 1981, 1981, 1969, 1969, 1969, 1969, 1969, 1969, 1969, 1958, 1958, 1958, 0, 0, 1936, 1936, 0, 0, 0, 1958, 1925, 1925, 1925, 1914, 1925, 1925, 1925, 1925, 1914, 1925, 1925, 1925, 1925, 1893, 0, 0, 0, 0, 0, 1903, 1914, 1914, 1914, 1936, 1925, 1914, 1882, 1882, 1914, 0, 0, 0, 0, 2316, 2285, 0, 0, 0, 0, 0, 0, 0, 0, 0, 0, 0, 0, 0, 0, 0, 0, 0, 0, 0, 0, 0, 0, 0, 1813, 1803, 1803, 1794, 1794, 1794, 1794, 1784, 0, 0, 0, 0, 0, 0, 0, 0, 0, 1766, 1766, 1766, 1766, 1757, 1757, 1757, 1757, 1757, 1757, 1757, 1748, 1748, 1748, 1748, 1739,
       4402, 4402, 4402, 4346, 4346, 4346, 4346, 4291, 4291, 4291, 4291, 4291, 4238, 4238, 4238, 4238, 4238, 4186, 4186, 4186, 4186, 4186, 0, 0, 0, 0, 0, 0, 0, 0, 0, 0, 0, 0, 0, 0, 2064, 2052, 2040, 2040, 2028, 2028, 2016, 2016, 2004, 2004, 1992, 1981, 1992, 1981, 1981, 1981, 1981, 1981, 1981, 1981, 1981, 1981, 1981, 1981, 1981, 1981, 1981, 1969, 1969, 1969, 1969, 1969, 1969, 1981, 1969, 1969, 1969, 1969, 1969, 1969, 1969, 1958, 1958, 1958, 1958, 1958, 1958, 1958, 1958, 1958, 1958, 1958, 1958, 1958, 1958, 1958, 1969, 1969, 1969, 1981, 1981, 1992, 1992, 2004, 2016, 2016, 2016, 2016, 2028, 2028, 2028, 2028, 2028, 2040, 2040, 2052, 2064, 2064, 2077, 2077, 2077, 2077, 2077, 2089, 2102, 2102, 2115, 2115, 2142, 2255, 2197, 0, 2558, 2558, 2558, 2558, 2539, 2521, 2521, 2521, 2521, 2521, 2502, 2502, 2502, 2502, 2484, 2466, 2466, 2448, 2448, 2448, 2448, 2431, 2431, 2431, 0, 0, 0, 0, 0, 0, 0, 2397, 0, 0, 2397, 2380, 0, 0, 2380, 2364, 0, 0, 0, 2364, 2364, 2348, 2348, 2332, 2332, 2332, 2332, 2316, 2316, 2316, 2300, 2300, 2300, 2300, 2300, 2300, 2285, 2285, 2285, 2270, 2270, 2270, 2270, 2255, 2255, 2255, 2255, 2255, 2255, 2240, 2240, 2225, 2225, 2225, 2225, 2211, 2211, 2211, 2197, 2197, 2197, 2197, 2183, 2183, 2183, 2183, 2183, 2183, 2169, 2169, 2155, 2155, 2155, 2155, 2155, 2142, 2142, 2142, 2142, 2142, 2142, 2142, 2129, 2129, 2129, 2115, 2102, 2077, 2016, 1981, 1969, 1969, 1958, 1958, 1958, 1958, 1947, 1947, 1947, 1947, 1936, 1947, 1947, 1947, 1947, 1947, 1947, 1947, 1947, 1947, 1958, 1958, 1969, 1969, 1969, 1981, 1981, 1981, 1981, 1981, 1992, 2004, 2016, 2028, 2040, 2040, 2052, 2052, 2052, 2052, 2064, 2064, 2077, 2077, 0, 0, 0, 0, 0, 0, 0, 0, 0, 0, 0, 0, 0, 0, 2956, 2931, 0, 0, 0, 0, 0, 2906, 2906, 2906, 2906, 2906, 2906, 2906, 2906, 2906, 2906, 2906, 2906, 2882, 2882, 2882, 2882, 2882, 2882, 2882, 2882, 2882, 2858, 2858, 2858, 2858, 2834, 2834, 2834, 2834, 2834, 2834, 2834, 2811, 2811, 2811, 2811, 2811, 2788, 2788, 2788, 2765, 2765, 2765, 2765, 2765, 2765, 2743, 2743, 2743, 2743, 2743, 2743, 2743, 2721, 2721, 2721, 2721, 2721, 2721, 2721, 2700, 2700, 2700, 2700, 2700, 2679, 2679, 2679, 2658, 2658, 2658, 2637, 2637, 2637, 2637, 2617, 2597, 2597, 2597, 2502, 0, 0, 0, 0, 0, 2064, 2064, 2064, 2064, 2064, 2052, 2052, 2052, 2052, 2040, 2040, 2040, 2040, 2040, 2028, 2028, 2028, 2028, 2028, 2028, 2016, 2016, 2016, 2016, 2016, 2016, 2016, 2016, 2004, 2004, 2004, 2004, 1992, 1992, 1992, 1981, 1981, 1981, 1981, 1981, 1981, 1981, 1981, 1969, 1969, 1969, 1969, 1969, 1969, 1969, 1969, 1969, 0, 0, 0, 0, 0, 0, 0, 0, 0, 0, 0, 0, 1947, 1914, 0, 0, 1925, 1925, 1882, 1842, 1893, 1969, 0, 0, 0, 0, 0, 0, 0, 0, 0, 0, 0, 2300, 2255, 0, 0, 0, 0, 2332, 2332, 2332, 2332, 2332, 2332, 2316, 2316, 2316, 2316, 2316, 0, 0, 0, 0, 0, 0, 0, 0, 0, 0, 0, 0, 0, 0, 0, 0, 0, 0, 0, 0, 0, 0, 0, 0, 0, 0, 0, 0, 0, 0, 0, 0, 0, 0, 0, 1766, 1766, 1766, 1766, 1757, 1757, 1757, 1757, 1757, 1757, 1757, 1775, 1766, 1748, 1739, 1739,
       4346, 4346, 4346, 4346, 4346, 4346, 4346, 4291, 4291, 4291, 4291, 4291, 4238, 4238, 4238, 4238, 4238, 4238, 4186, 4186, 4186, 4186, 4186, 4186, 0, 0, 0, 0, 0, 0, 0, 0, 0, 0, 0, 0, 0, 2064, 2052, 2040, 2028, 2028, 2016, 2004, 2004, 2004, 1992, 1992, 1992, 1981, 1981, 1981, 1981, 1981, 1981, 1981, 1981, 1981, 1981, 1981, 1981, 1981, 1981, 1981, 1969, 1969, 1969, 1981, 1981, 1981, 1981, 1969, 1969, 1969, 1969, 1969, 1969, 1958, 1958, 1969, 1958, 1958, 1958, 1958, 1958, 1958, 1958, 1958, 1958, 1958, 1958, 1958, 1969, 1969, 1969, 1981, 1981, 1992, 1992, 2004, 2004, 2016, 2016, 2016, 2028, 2028, 2028, 2028, 2028, 2028, 2040, 2052, 2064, 2064, 2064, 2077, 2077, 2077, 2089, 2102, 2102, 2115, 2115, 2129, 2129, 2129, 2142, 2155, 2155, 0, 2558, 2558, 2558, 2539, 2539, 2539, 2539, 2539, 2521, 2502, 2502, 2502, 2502, 2484, 2466, 2448, 2448, 2448, 2448, 2448, 2448, 2448, 0, 0, 0, 0, 0, 2414, 2414, 2414, 2397, 2397, 2397, 2397, 2397, 0, 0, 0, 0, 0, 0, 2364, 2364, 2348, 2348, 2348, 2332, 2332, 2332, 2332, 2332, 2332, 2316, 2316, 2316, 2316, 2300, 2300, 2300, 2285, 2285, 2285, 2285, 2270, 2270, 2270, 2270, 2255, 2255, 2255, 2255, 2240, 2240, 2240, 2240, 2240, 2225, 2225, 2225, 2211, 2211, 2211, 2211, 2197, 2197, 2197, 2183, 2183, 2197, 2183, 2183, 2183, 2169, 2169, 2169, 2169, 2169, 2155, 2155, 2142, 2142, 2142, 2142, 2142, 2129, 2129, 2129, 2115, 2102, 2077, 2052, 2004, 1981, 1969, 1969, 1958, 1958, 1958, 1947, 1947, 1947, 1947, 1936, 1947, 1947, 1947, 1947, 1947, 1947, 1958, 1958, 1958, 1969, 1969, 1969, 1969, 1981, 1981, 1981, 1981, 1981, 1992, 1992, 2004, 2016, 2028, 2028, 2040, 2040, 2040, 2052, 2052, 2064, 2064, 2064, 2077, 0, 0, 0, 0, 0, 0, 0, 0, 0, 2982, 3008, 3008, 0, 0, 2982, 2956, 0, 0, 2931, 2931, 2931, 2931, 2906, 2906, 2906, 2906, 2906, 2906, 2906, 2906, 2906, 2906, 2906, 2906, 2882, 2882, 2882, 2882, 2882, 2882, 2882, 2882, 2882, 2858, 2858, 2858, 2834, 2834, 2834, 2834, 2834, 2834, 2834, 2811, 2811, 2811, 2811, 2811, 2788, 2788, 2788, 2765, 2765, 2765, 2765, 2765, 2765, 2743, 2743, 2743, 2743, 2743, 2743, 2721, 2721, 2721, 2721, 2721, 2721, 2721, 2721, 2700, 2700, 2700, 2700, 2700, 2679, 2679, 2679, 2679, 2658, 2658, 2637, 2637, 2637, 2617, 2597, 2597, 2597, 2578, 2558, 0, 0, 0, 0, 0, 2064, 2064, 2064, 2064, 2064, 2052, 2052, 2052, 2040, 2040, 2040, 2040, 2040, 2040, 2028, 2028, 2028, 2028, 2028, 2028, 2028, 2016, 2016, 2016, 2016, 2016, 2016, 2016, 2004, 2004, 2004, 2004, 1992, 1992, 1992, 1981, 1981, 1981, 1981, 1981, 1981, 1981, 1981, 1981, 1969, 1969, 1969, 1969, 1969, 1969, 0, 0, 0, 0, 0, 0, 2466, 2414, 2414, 2380, 2364, 2332, 2300, 2285, 0, 0, 0, 0, 0, 0, 0, 0, 0, 0, 2332, 2332, 2300, 2316, 2332, 2332, 2348, 2348, 2348, 2348, 2348, 2332, 2332, 2332, 2332, 2332, 2332, 2332, 2332, 2332, 2332, 2332, 2316, 2316, 2316, 2316, 2316, 2316, 2316, 0, 0, 0, 0, 0, 0, 0, 0, 0, 0, 0, 2300, 2300, 2300, 2300, 0, 0, 0, 0, 0, 2270, 2255, 0, 0, 0, 0, 0, 0, 0, 0, 0, 0, 0, 0, 0, 0, 0, 1757, 1757, 1757, 1748, 1748, 1757, 1757, 0, 0, 0, 1739, 1739, 1739,
       4402, 4402, 4402, 4346, 4346, 4346, 4346, 4291, 4291, 4291, 4291, 4291, 4291, 4238, 4238, 4238, 4238, 4238, 4186, 4186, 4186, 4186, 4186, 0, 0, 0, 0, 0, 0, 0, 0, 0, 0, 0, 0, 0, 0, 2064, 2052, 2040, 2040, 2028, 2016, 2016, 2004, 2004, 2004, 1992, 1992, 1981, 1981, 1981, 1981, 1981, 1981, 1981, 1981, 1981, 1981, 1981, 1981, 1981, 1981, 1981, 1969, 1969, 1981, 1981, 1981, 1981, 1981, 1969, 1969, 1969, 1969, 1969, 1969, 1969, 1969, 1969, 1969, 1958, 1958, 1958, 1958, 1958, 1958, 1958, 1958, 1958, 1958, 1958, 1958, 1969, 1969, 1969, 1981, 1981, 1992, 2004, 2004, 2016, 2016, 2016, 2028, 2028, 2028, 2028, 2028, 2040, 2040, 2052, 2064, 2064, 2064, 2077, 2077, 2077, 2089, 2102, 2115, 2115, 2129, 2129, 2129, 2142, 2142, 2155, 2155, 2155, 2578, 2578, 2558, 2558, 2558, 2558, 2558, 2539, 2558, 2578, 2578, 0, 0, 0, 0, 2466, 2448, 2448, 2448, 2448, 2448, 2448, 2448, 0, 0, 0, 2431, 2431, 2431, 2448, 0, 0, 0, 0, 0, 0, 3501, 3650, 3690, 0, 0, 2364, 2364, 2348, 2348, 2348, 2348, 2348, 2348, 2332, 2332, 2348, 2332, 2332, 2332, 2332, 2332, 2316, 2316, 2300, 2300, 2285, 2285, 2285, 2285, 2270, 2270, 2270, 2270, 2270, 2255, 2240, 2240, 2240, 2240, 2240, 2225, 2225, 2225, 2225, 2211, 2211, 2211, 2211, 2211, 2197, 2197, 2197, 2197, 2197, 2183, 2183, 2183, 2169, 2169, 2169, 2169, 2155, 2155, 2155, 2142, 2142, 2142, 2142, 2142, 2129, 2129, 2115, 2115, 2089, 2077, 2028, 1992, 1981, 1969, 1969, 1958, 1958, 1947, 1947, 1947, 1936, 1936, 1947, 1947, 1947, 1958, 1958, 1958, 1969, 1969, 1969, 1969, 1969, 1969, 1981, 1981, 1981, 1981, 1981, 1992, 1992, 1992, 2004, 2016, 2028, 2028, 2028, 2028, 2028, 2040, 2064, 2115, 0, 0, 0, 0, 0, 0, 0, 0, 3090, 3062, 3062, 3035, 3035, 3008, 3008, 3008, 3008, 2982, 2982, 2956, 2931, 2931, 2931, 2931, 2931, 2931, 2931, 2906, 2906, 2906, 2906, 2906, 2906, 2906, 2906, 2906, 2906, 2906, 2906, 2882, 2882, 2882, 2882, 2882, 2882, 2882, 2858, 2858, 2858, 2834, 2834, 2834, 2834, 2834, 2834, 2811, 2811, 2811, 2811, 2811, 2811, 2788, 2788, 2788, 2765, 2765, 2765, 2765, 2765, 2765, 2743, 2743, 2743, 2743, 2743, 2743, 2721, 2721, 2721, 2721, 2721, 2721, 2721, 2721, 2700, 2700, 2700, 2700, 2700, 2679, 2679, 2679, 2679, 2658, 2658, 2637, 2637, 2637, 2617, 2597, 2597, 2597, 2578, 2578, 0, 0, 0, 0, 2077, 2064, 2064, 2064, 2064, 2064, 2052, 2052, 2052, 2040, 2040, 2040, 2040, 2040, 2040, 2028, 2028, 2028, 2028, 2028, 2028, 2028, 2028, 2028, 2028, 2016, 2016, 2016, 2016, 2004, 2004, 2004, 2004, 2004, 1992, 1992, 1992, 1981, 1981, 1981, 1981, 1981, 1981, 1981, 1981, 1969, 1969, 1969, 1969, 1969, 1969, 0, 0, 0, 0, 2414, 2414, 2414, 2414, 2414, 2397, 2397, 2380, 2380, 2380, 0, 0, 0, 0, 0, 0, 0, 0, 0, 0, 2364, 2348, 2348, 2348, 2348, 2348, 2348, 2348, 2348, 2348, 2348, 2332, 2332, 2332, 2332, 2332, 2316, 2316, 2316, 2316, 2316, 2316, 2316, 2316, 2316, 2316, 2316, 2316, 2316, 2316, 2300, 2300, 2300, 0, 0, 2300, 2285, 2300, 2285, 2285, 2285, 2300, 2300, 2300, 2300, 2285, 2285, 2285, 2270, 2270, 2255, 2240, 2240, 0, 0, 0, 0, 0, 0, 0, 0, 0, 0, 0, 0, 0, 0, 1748, 1748, 0, 0, 0, 0, 0, 0, 0, 0, 0, 0,
       4402, 4402, 4402, 4346, 4346, 4346, 4346, 4291, 4291, 4291, 4291, 4291, 4291, 4238, 4238, 4238, 4238, 4186, 4186, 4186, 4186, 4136, 4136, 0, 0, 0, 0, 0, 0, 0, 0, 0, 0, 0, 0, 2077, 2077, 2064, 2052, 2052, 2040, 2028, 2016, 2016, 2016, 2004, 2004, 1992, 1992, 1981, 1981, 1981, 1981, 1981, 1981, 1981, 1981, 1981, 1981, 1981, 1981, 1981, 1981, 1981, 1969, 1969, 1981, 1981, 1981, 1981, 1981, 1969, 1969, 1969, 1969, 1969, 1969, 1969, 1969, 1969, 1969, 1958, 1958, 1958, 1958, 1947, 1947, 1947, 1947, 1947, 1947, 1958, 1958, 1958, 1969, 1969, 1981, 1981, 1992, 2004, 2004, 2016, 2016, 2016, 2028, 2028, 2028, 2028, 2028, 2040, 2040, 2052, 2064, 2064, 2064, 2077, 2077, 2089, 2102, 2115, 2115, 2129, 2129, 2129, 2129, 2142, 2142, 2155, 2155, 2155, 0, 0, 2558, 2578, 2578, 2578, 2578, 2597, 0, 0, 0, 0, 0, 0, 0, 0, 0, 2431, 2484, 2448, 2448, 2448, 0, 0, 0, 0, 0, 0, 0, 0, 0, 0, 0, 3771, 0, 3771, 3730, 3690, 3690, 0, 0, 0, 2380, 2348, 2348, 2348, 2348, 2348, 2348, 2348, 2348, 2348, 2348, 2332, 2332, 2332, 2332, 2332, 2316, 2316, 2316, 2285, 2285, 2285, 2285, 2270, 2270, 2270, 2270, 2270, 2255, 2255, 2255, 2240, 2240, 2240, 2240, 2225, 2225, 2225, 2225, 2225, 2225, 2211, 2211, 2197, 2197, 0, 0, 2197, 2183, 2183, 2183, 2169, 2169, 2169, 2169, 2169, 2155, 2155, 2155, 2155, 2155, 2142, 2142, 2129, 2129, 2115, 2115, 0, 0, 2040, 2004, 1981, 1969, 1958, 1958, 1958, 1947, 1947, 1947, 1947, 1947, 1947, 1947, 1958, 1958, 1958, 1958, 1969, 1969, 1969, 1969, 1969, 1981, 1981, 1981, 1981, 1992, 1992, 1992, 2004, 2004, 2016, 2016, 2028, 2028, 2028, 2028, 2028, 0, 0, 0, 0, 3008, 0, 3062, 3062, 3035, 3035, 3062, 3062, 3062, 3035, 3035, 3035, 3008, 3008, 3008, 3008, 2982, 2982, 2956, 2931, 2931, 2931, 2931, 2931, 2931, 2931, 2931, 2931, 2931, 2931, 2931, 2906, 2906, 2906, 2906, 2906, 2906, 2906, 2906, 2882, 2882, 2882, 2882, 2882, 2882, 2858, 2858, 2858, 2834, 2834, 2834, 2834, 2834, 2834, 2811, 2811, 2811, 2811, 2811, 2811, 2811, 2788, 2788, 2788, 2765, 2765, 2765, 2765, 2765, 2743, 2743, 2743, 2743, 2743, 2721, 2721, 2721, 2721, 2721, 2721, 2721, 2721, 2721, 2721, 2700, 2700, 2700, 2700, 2679, 2679, 2679, 2679, 2658, 2658, 2637, 2637, 2637, 2637, 2617, 2597, 2597, 2597, 2578, 2521, 0, 2129, 2077, 2077, 2064, 2064, 2064, 2064, 2064, 2052, 2052, 2052, 2040, 2040, 2040, 2040, 2040, 2040, 2028, 2028, 2028, 2028, 2028, 2028, 2028, 2016, 2016, 2016, 2016, 2016, 2016, 2016, 2004, 2004, 2004, 2004, 1992, 1992, 1992, 1992, 1981, 1981, 1981, 1981, 1981, 1981, 1981, 1981, 1981, 1981, 1981, 1969, 1969, 2004, 0, 0, 0, 2431, 2431, 2414, 2414, 2414, 2414, 2414, 2397, 2397, 2397, 2397, 2397, 2397, 2397, 0, 0, 0, 0, 0, 0, 2364, 2364, 2348, 2348, 2348, 2348, 2348, 2348, 2348, 2348, 2348, 2348, 2332, 2332, 2316, 2316, 2316, 2316, 2316, 2300, 2300, 2300, 2300, 2300, 2316, 2316, 2316, 2316, 2316, 2300, 2300, 2300, 2300, 2300, 2300, 2300, 2285, 2285, 2285, 2285, 2285, 2285, 2285, 2285, 2285, 2285, 2285, 2285, 2285, 2270, 2270, 2255, 2240, 2240, 2225, 2225, 2225, 0, 0, 0, 2211, 2211, 2240, 2240, 2211, 2211, 2197, 2142, 2089, 2102, 2142, 0, 0, 2240, 2211, 2240, 2197, 2169, 2169, 2169,
       4402, 4402, 4402, 4402, 4346, 4346, 4346, 4291, 4291, 4291, 4291, 4291, 4238, 4238, 4238, 4238, 4238, 4186, 4186, 4186, 4186, 4136, 4136, 4136, 0, 0, 0, 0, 0, 0, 0, 0, 0, 0, 2064, 2064, 2077, 2064, 2052, 2040, 2040, 2028, 2016, 2016, 2004, 2004, 1992, 1992, 1992, 1981, 1981, 1981, 1981, 1981, 1981, 1981, 1981, 1981, 1981, 1981, 1981, 1981, 1981, 1981, 1969, 1969, 1969, 1969, 1969, 1969, 1969, 1969, 1969, 1969, 1969, 1969, 1969, 1969, 1958, 1969, 1958, 1958, 1958, 1958, 1958, 1947, 1947, 1947, 1958, 1958, 1947, 1958, 1958, 1958, 1969, 1969, 1981, 1981, 1992, 2004, 2004, 2016, 2016, 2016, 2028, 2028, 2028, 2028, 2040, 2040, 2040, 2052, 2064, 2064, 2077, 2077, 2089, 2089, 2102, 2115, 2115, 2129, 2129, 2129, 2129, 2142, 2142, 2155, 2155, 2155, 0, 0, 0, 0, 3501, 0, 0, 3537, 3650, 3650, 3650, 0, 0, 0, 0, 0, 0, 0, 0, 0, 0, 0, 0, 0, 0, 0, 0, 0, 0, 3771, 3771, 3813, 3813, 3771, 3771, 3771, 3730, 3690, 3690, 0, 0, 0, 0, 0, 0, 0, 0, 0, 0, 0, 0, 0, 0, 0, 0, 0, 0, 0, 2332, 2332, 2332, 2332, 0, 0, 2285, 2285, 2285, 2285, 2270, 2270, 2270, 2255, 2255, 2255, 2240, 2240, 2240, 2240, 2255, 2270, 2285, 2300, 2270, 2225, 2211, 2225, 2270, 0, 0, 2285, 2285, 2270, 2211, 2169, 2169, 2169, 2169, 2155, 2155, 2155, 2142, 2142, 2142, 2142, 2142, 2129, 2129, 2115, 2115, 0, 0, 0, 1992, 1969, 1969, 1958, 1958, 1947, 1947, 1947, 1947, 1947, 1947, 1947, 1947, 1958, 1958, 1958, 1969, 1969, 1969, 1969, 1969, 1969, 1981, 1981, 1981, 1981, 1992, 1992, 2004, 2004, 2016, 2016, 2028, 2040, 2052, 2064, 2089, 2102, 0, 0, 3090, 3090, 3090, 3062, 3062, 3062, 3035, 3035, 3062, 3062, 3035, 3035, 3035, 3008, 3008, 3008, 3008, 3008, 2982, 2982, 2956, 2956, 2956, 2931, 2931, 2931, 2931, 2931, 2931, 2931, 2931, 2931, 2931, 2931, 2906, 2906, 2906, 2906, 2906, 2906, 2906, 2882, 2882, 2882, 2882, 2882, 2882, 2858, 2858, 2858, 2834, 2834, 2834, 2834, 2834, 2834, 2811, 2811, 2811, 2811, 2811, 2811, 2788, 2788, 2788, 2788, 2765, 2765, 2765, 2765, 2765, 2743, 2743, 2743, 2743, 2743, 2743, 2721, 2721, 2721, 2721, 2721, 2721, 2721, 2721, 2721, 2700, 2700, 2700, 2700, 2679, 2679, 2679, 2679, 2658, 2658, 2658, 2637, 2637, 2637, 2617, 2617, 2597, 2597, 2578, 2558, 0, 2115, 2077, 2077, 2064, 2064, 2064, 2064, 2064, 2052, 2052, 2052, 2040, 2040, 2040, 2040, 2028, 2028, 2028, 2028, 2028, 2028, 2028, 2028, 2028, 2016, 2016, 2016, 2016, 2016, 2016, 2016, 2004, 2004, 2004, 2004, 1992, 1992, 1992, 1992, 1981, 1981, 1981, 1981, 1981, 1981, 1981, 1981, 1981, 1981, 1981, 2016, 0, 0, 2364, 2431, 2431, 2431, 2431, 2414, 2414, 2414, 2414, 2397, 2397, 2397, 2397, 2380, 2380, 2380, 2380, 2364, 2364, 2364, 2364, 2364, 2364, 2364, 2364, 2348, 2364, 2348, 2348, 2348, 2348, 2348, 2348, 2348, 2348, 2332, 2332, 2316, 2316, 2316, 2316, 2316, 2300, 2300, 2300, 2300, 2300, 2300, 2316, 2316, 2316, 2316, 2300, 2300, 2300, 2300, 2300, 2300, 2285, 2285, 2285, 2285, 2285, 2285, 2285, 2285, 2285, 2285, 2285, 2285, 2285, 2285, 2270, 2270, 2255, 2240, 2240, 2240, 2225, 2225, 2225, 2225, 2225, 2225, 2225, 2225, 2225, 2225, 2211, 2211, 2211, 2211, 2211, 2197, 2197, 2197, 2197, 2197, 2211, 2211, 2197, 2183, 2183,
       4402, 4402, 4402, 4402, 4346, 4346, 4346, 4291, 4291, 4291, 4291, 4238, 4238, 4238, 4238, 4238, 4238, 4186, 4186, 4186, 4186, 4186, 4136, 4136, 0, 0, 0, 0, 0, 0, 0, 0, 0, 0, 2064, 2064, 2064, 2064, 2052, 2040, 2040, 2028, 2028, 2016, 2016, 2004, 2004, 1992, 1992, 1992, 1992, 1992, 1992, 1981, 1992, 1981, 1981, 1992, 1981, 1981, 1981, 1981, 1981, 1981, 1969, 1969, 1969, 1981, 1969, 1969, 1969, 1969, 1969, 1969, 1969, 1969, 1969, 1969, 1958, 1969, 1969, 1958, 1958, 1958, 1958, 1958, 1958, 1947, 1958, 1958, 1947, 1958, 1958, 1958, 1958, 1969, 1981, 1981, 1992, 2004, 2004, 2016, 2016, 2028, 2028, 2028, 2028, 2028, 2040, 2040, 2040, 2052, 2064, 2064, 2077, 2077, 2089, 2089, 2102, 2115, 2115, 2129, 2129, 2129, 2129, 2142, 2142, 2155, 2155, 2155, 2183, 0, 0, 3650, 3650, 3650, 3650, 3650, 3650, 3650, 3650, 3650, 0, 0, 0, 0, 3690, 3690, 3690, 3730, 3730, 3612, 0, 0, 0, 0, 0, 3771, 3771, 3771, 3771, 3771, 3771, 3771, 3771, 3730, 3730, 3690, 3690, 3650, 3650, 3650, 3650, 3650, 3650, 3537, 0, 0, 0, 0, 0, 3537, 3397, 3330, 3330, 3363, 3363, 3330, 3206, 3236, 3267, 3298, 3397, 3465, 0, 0, 0, 2285, 2285, 2285, 2270, 2255, 2255, 2255, 2255, 2300, 0, 0, 0, 0, 0, 0, 0, 0, 0, 0, 0, 0, 0, 0, 0, 0, 0, 0, 0, 0, 0, 0, 0, 0, 0, 2155, 2155, 2211, 2155, 2129, 2129, 2129, 2115, 0, 0, 0, 1981, 1969, 1958, 1958, 1958, 1947, 1947, 1947, 1947, 1947, 1947, 1947, 1947, 1958, 1958, 1958, 1969, 1969, 1969, 1969, 1969, 1969, 1981, 1981, 1981, 1981, 1981, 1992, 1992, 2004, 2016, 2016, 0, 0, 0, 0, 0, 3118, 3090, 3090, 3090, 3090, 3090, 3062, 3062, 3062, 3035, 3035, 3035, 3035, 3035, 3035, 3008, 3008, 3008, 3008, 3008, 3008, 2982, 2982, 2956, 2956, 2956, 2956, 2956, 2956, 2931, 2931, 2931, 2931, 2931, 2931, 2931, 2931, 2906, 2906, 2906, 2906, 2906, 2906, 2906, 2882, 2882, 2882, 2882, 2858, 2858, 2858, 2858, 2858, 2834, 2834, 2834, 2834, 2834, 2834, 2811, 2811, 2811, 2811, 2811, 2811, 2788, 2788, 2788, 2788, 2788, 2765, 2765, 2765, 2765, 2743, 2743, 2743, 2743, 2743, 2743, 2743, 2721, 2721, 2721, 2721, 2721, 2721, 2721, 2721, 2700, 2700, 2700, 2700, 2679, 2679, 2679, 2658, 2658, 2658, 2658, 2637, 2637, 2637, 2617, 2617, 2617, 2597, 2578, 2558, 2484, 0, 2077, 2077, 2064, 2064, 2064, 2064, 2064, 2052, 2052, 2052, 2052, 2040, 2040, 2040, 2040, 2040, 2028, 2028, 2028, 2028, 2028, 2028, 2028, 2016, 2016, 2016, 2016, 2016, 2004, 2004, 2004, 2004, 2004, 2004, 1992, 1992, 1992, 1992, 1992, 1992, 1992, 1992, 1981, 1981, 1981, 1981, 1981, 0, 0, 0, 2364, 2431, 2431, 2431, 2431, 2431, 2431, 2414, 2414, 2414, 2414, 2397, 2397, 2380, 2380, 2380, 2380, 2364, 2364, 2364, 2364, 2364, 2364, 2364, 2348, 2364, 2364, 2348, 2364, 2348, 2348, 2348, 2348, 2348, 2348, 2348, 2348, 2348, 2332, 2316, 2316, 2316, 2316, 2316, 2300, 2300, 2300, 2300, 2300, 2316, 2316, 2316, 2316, 2300, 2300, 2300, 2300, 2300, 2285, 2285, 2285, 2285, 2285, 2285, 2285, 2285, 2285, 2285, 2285, 2285, 2285, 2285, 2285, 2285, 2270, 2270, 2255, 2240, 2240, 2240, 2240, 2225, 2225, 2225, 2225, 2225, 2225, 2225, 2225, 2225, 2211, 2211, 2211, 2211, 2211, 2211, 2197, 2197, 2197, 2197, 2211, 2197, 2197, 2197, 2183,
       4402, 4402, 4402, 4402, 4346, 4346, 4346, 4291, 4291, 4291, 4291, 4238, 4238, 4238, 4238, 4238, 4238, 4186, 4186, 4186, 4186, 4186, 4136, 4186, 0, 0, 0, 0, 0, 0, 0, 0, 0, 0, 0, 2064, 2064, 2064, 2052, 2040, 2040, 2028, 2028, 2016, 2016, 2016, 2004, 2004, 2004, 1992, 1992, 1992, 1992, 1981, 1992, 1992, 1981, 1992, 1981, 1981, 1981, 1981, 1981, 1981, 1981, 1969, 1969, 1981, 1969, 1969, 1969, 1969, 1969, 1969, 1969, 1969, 1969, 1969, 1958, 1969, 1969, 1958, 1958, 1958, 1958, 1958, 1958, 1947, 1947, 1958, 1947, 1947, 1947, 1947, 1947, 1958, 1969, 1981, 1992, 2004, 2004, 2016, 2016, 2028, 2028, 2028, 2028, 2028, 2040, 2040, 2040, 2052, 2052, 2064, 2064, 2077, 2077, 2089, 2102, 2115, 2115, 2129, 2129, 2129, 2129, 2142, 2142, 2155, 2155, 2155, 2155, 0, 0, 3690, 3650, 3650, 3650, 3650, 3650, 3650, 3650, 3650, 3650, 3690, 3690, 3690, 3690, 3690, 3690, 3690, 3690, 3690, 3690, 3690, 3690, 3730, 3730, 3771, 3771, 3771, 3771, 3771, 3771, 3771, 3771, 3730, 3730, 3690, 3690, 3690, 3650, 3650, 3650, 3690, 3690, 3650, 3650, 3650, 3650, 3650, 3650, 3612, 3612, 3612, 3612, 3612, 3612, 3612, 3650, 3650, 3650, 3650, 3650, 3650, 3650, 3537, 3397, 3330, 0, 0, 0, 0, 0, 0, 0, 0, 0, 0, 0, 3465, 3465, 3431, 3431, 3397, 3397, 3397, 3397, 3397, 3397, 3397, 3397, 3363, 3363, 3363, 3363, 0, 0, 0, 0, 0, 0, 0, 0, 0, 0, 2183, 2142, 2129, 0, 0, 0, 0, 1969, 1958, 1958, 1958, 1947, 1947, 1947, 1947, 1947, 1947, 1936, 1947, 1947, 1958, 1958, 1958, 1958, 1969, 1969, 1969, 1969, 1969, 1969, 1969, 1981, 1981, 1981, 1992, 1992, 2004, 0, 0, 0, 0, 3118, 3118, 3118, 3118, 3090, 3090, 3090, 3090, 3062, 3062, 3035, 3035, 3035, 3035, 3035, 3035, 3035, 3035, 3008, 3008, 3008, 3008, 3008, 3008, 3008, 2982, 2982, 2956, 2956, 2956, 2956, 2956, 2931, 2931, 2931, 2931, 2931, 2931, 2931, 2931, 2931, 2906, 2906, 2906, 2906, 2906, 2882, 2882, 2882, 2882, 2882, 2858, 2858, 2858, 2858, 2858, 2858, 2834, 2834, 2834, 2834, 2834, 2811, 2811, 2811, 2811, 2811, 2811, 2788, 2788, 2788, 2788, 2788, 2765, 2765, 2765, 2765, 2765, 2743, 2743, 2743, 2743, 2743, 2743, 2743, 2721, 2721, 2721, 2721, 2721, 2721, 2700, 2700, 2700, 2700, 2679, 2679, 2679, 2679, 2658, 2658, 2658, 2658, 2637, 2637, 2637, 2617, 2617, 2597, 2597, 2578, 2578, 2558, 0, 0, 2077, 2064, 2064, 2064, 2064, 2064, 2052, 2052, 2052, 2052, 2040, 2040, 2040, 2040, 2040, 2028, 2028, 2028, 2028, 2028, 2028, 2028, 2016, 2016, 2016, 2016, 2016, 2004, 2004, 2004, 2004, 2004, 2004, 1992, 1992, 1992, 1992, 1992, 1992, 1992, 1992, 1992, 1992, 1992, 1981, 0, 0, 0, 0, 2431, 2431, 2431, 2431, 2431, 2431, 2431, 2431, 2414, 2414, 2414, 2397, 2397, 2397, 2380, 2380, 2380, 2364, 2364, 2364, 2364, 2364, 2364, 2364, 2348, 2364, 2364, 2348, 2364, 2364, 2348, 2348, 2348, 2348, 2348, 2348, 2348, 2348, 2332, 2332, 2316, 2316, 2316, 2316, 2300, 2316, 2316, 2300, 2300, 2300, 2300, 2300, 2300, 2300, 2300, 2300, 2300, 2300, 2285, 2285, 2285, 2285, 2285, 2285, 2285, 2285, 2285, 2285, 2285, 2285, 2285, 2285, 2270, 2270, 2270, 2270, 2255, 2240, 2240, 2240, 2240, 2225, 2225, 2225, 2225, 2225, 2225, 2225, 2225, 2225, 2225, 2225, 2225, 2211, 2211, 2211, 2211, 2197, 2197, 2197, 2197, 2197, 2197, 2197, 2183,
       4402, 4402, 4402, 4402, 4346, 4346, 4346, 4291, 4291, 4291, 4291, 4291, 4238, 4238, 4238, 4238, 4238, 4238, 4186, 4186, 4186, 4186, 4136, 4291, 0, 0, 0, 0, 0, 0, 0, 0, 0, 0, 0, 2064, 2064, 2052, 2052, 2040, 2040, 2028, 2028, 2028, 2016, 2016, 2004, 2004, 2004, 1992, 1992, 1992, 1992, 1992, 1992, 1992, 1992, 1992, 1981, 1981, 1981, 1981, 1981, 1981, 1981, 1969, 1969, 1981, 1969, 1969, 1969, 1969, 1969, 1969, 1969, 1969, 1969, 1969, 1958, 1969, 1969, 1958, 1958, 1958, 1958, 1958, 1958, 1947, 1947, 1947, 1947, 1947, 1947, 1947, 1947, 1958, 1969, 1981, 1992, 2004, 2004, 2016, 2016, 2028, 2028, 2028, 2028, 2028, 2040, 2040, 2040, 2040, 2052, 2064, 2064, 2077, 2077, 2089, 2102, 2115, 2115, 2129, 2129, 2129, 2129, 2142, 2142, 2155, 2155, 2155, 2155, 0, 0, 3690, 3650, 3650, 3650, 3650, 3650, 3650, 3650, 3650, 3650, 3690, 3690, 3690, 3690, 3690, 3690, 3690, 3690, 3690, 3690, 3690, 3690, 3730, 3730, 3771, 3771, 3771, 3771, 3771, 3771, 3771, 3771, 3730, 3730, 3730, 3690, 3690, 3690, 3690, 3690, 3690, 3690, 3690, 3650, 3650, 3650, 3650, 3650, 3612, 3612, 3612, 3574, 3574, 3612, 3612, 3612, 3612, 3650, 3612, 3650, 3650, 3612, 3650, 3612, 3574, 0, 0, 0, 0, 0, 0, 0, 0, 0, 0, 3465, 3431, 3431, 3431, 3431, 3431, 3397, 3397, 3397, 3397, 3397, 3397, 3397, 3397, 3363, 3363, 3363, 3363, 3363, 3363, 3363, 3363, 3363, 3363, 3363, 3363, 0, 0, 0, 0, 0, 0, 0, 0, 1969, 1958, 1958, 1958, 1947, 1947, 1947, 1947, 1936, 1936, 1936, 1947, 1947, 1947, 1947, 1958, 1958, 1969, 1969, 1958, 1969, 1969, 1969, 1969, 0, 0, 0, 0, 2956, 2982, 3035, 3062, 3090, 3118, 3118, 3118, 3118, 3090, 3090, 3090, 3090, 3062, 3062, 3062, 3035, 3035, 3035, 3035, 3035, 3035, 3035, 3008, 3008, 3008, 3008, 3008, 3008, 2982, 2982, 2982, 2982, 2956, 2956, 2956, 2956, 2956, 2956, 2931, 2931, 2931, 2931, 2931, 2931, 2931, 2931, 2906, 2906, 2906, 2906, 2906, 2882, 2882, 2882, 2882, 2882, 2858, 2858, 2858, 2858, 2858, 2858, 2834, 2834, 2834, 2834, 2834, 2811, 2811, 2811, 2811, 2811, 2811, 2788, 2788, 2788, 2788, 2788, 2765, 2765, 2765, 2765, 2765, 2743, 2743, 2743, 2743, 2743, 2743, 2721, 2721, 2721, 2721, 2721, 2700, 2700, 2700, 2700, 2700, 2700, 2679, 2679, 2679, 2658, 2658, 2658, 2658, 2658, 2637, 2637, 2637, 2617, 2617, 2617, 2597, 2578, 2578, 0, 0, 0, 2077, 2064, 2064, 2064, 2064, 2064, 2052, 2052, 2052, 2052, 2040, 2040, 2040, 2040, 2040, 2040, 2040, 2028, 2028, 2028, 2028, 2016, 2016, 2016, 2016, 2016, 2016, 2016, 2004, 2004, 2004, 2004, 2004, 2004, 1992, 1992, 1992, 1992, 1992, 1992, 1992, 1992, 1992, 1992, 1992, 0, 0, 0, 2414, 2414, 2431, 2431, 2431, 2431, 2431, 2431, 2431, 2414, 2414, 2414, 2414, 2397, 2397, 2380, 2380, 2380, 2364, 2364, 2364, 2364, 2364, 2364, 2364, 2364, 2364, 2364, 2348, 2364, 2364, 2364, 2364, 2348, 2348, 2348, 2348, 2348, 2348, 2332, 2332, 2332, 2316, 2316, 2316, 2316, 2316, 2316, 2300, 2300, 2300, 2300, 2300, 2300, 2300, 2300, 2300, 2300, 2300, 2285, 2285, 2285, 2285, 2285, 2285, 2285, 2285, 2285, 2285, 2285, 2285, 2285, 2285, 2270, 2270, 2255, 2255, 2240, 2240, 2240, 2240, 2240, 2225, 2225, 2225, 2225, 2225, 2225, 2225, 2225, 2225, 2225, 2225, 2225, 2211, 2211, 2211, 2211, 2211, 2197, 2197, 2197, 2197, 2197, 2197, 2183,
       4402, 4402, 4402, 4346, 4346, 4346, 4346, 4291, 4291, 4291, 4291, 4291, 4238, 4238, 4238, 4238, 4238, 4238, 4186, 4186, 4186, 4186, 4136, 4136, 0, 0, 0, 0, 0, 0, 0, 0, 0, 0, 2064, 2064, 2064, 2052, 2052, 2040, 2040, 2028, 2028, 2028, 2028, 2016, 2004, 2004, 2004, 1992, 1992, 1992, 1992, 1992, 1992, 1992, 1992, 1992, 1981, 1981, 1981, 1981, 1981, 1981, 1981, 1969, 1981, 1981, 1969, 1969, 1969, 1969, 1969, 1969, 1969, 1969, 1969, 1958, 1958, 1969, 1958, 1958, 1969, 1958, 1958, 1958, 1958, 1947, 1947, 1947, 1947, 1947, 1947, 1947, 1947, 1958, 1969, 1981, 1992, 2004, 2016, 2016, 2028, 2028, 2028, 2028, 2028, 2028, 2040, 2040, 2040, 2040, 2052, 2064, 2064, 2077, 2077, 2089, 2102, 2115, 2115, 2129, 2129, 2129, 2142, 2142, 2155, 2155, 2155, 2155, 2169, 0, 0, 3690, 3650, 3650, 3650, 3650, 3650, 3650, 3650, 3650, 3690, 3690, 3690, 3690, 3690, 3690, 3690, 3690, 3690, 3690, 3690, 3730, 3730, 3730, 3730, 3771, 3771, 3771, 3771, 3771, 3771, 3771, 3771, 3771, 3730, 3730, 3690, 3690, 3690, 3690, 3690, 3690, 3690, 3690, 3650, 3650, 3650, 3650, 3612, 3612, 3574, 3574, 3574, 3574, 3574, 3612, 3612, 3612, 3612, 3612, 3612, 3612, 3574, 3612, 3574, 3537, 3537, 3537, 3537, 3537, 3501, 3501, 3501, 3501, 3465, 3465, 3465, 3431, 3431, 3431, 3431, 3397, 3397, 3397, 3397, 3397, 3397, 3397, 3397, 3397, 3363, 3363, 3363, 3363, 3363, 3363, 3363, 3363, 3363, 3363, 3363, 3363, 3363, 3363, 0, 0, 0, 0, 0, 0, 1969, 1958, 1958, 1958, 1947, 1947, 1947, 1947, 1936, 1936, 1936, 1936, 1947, 1947, 1947, 1947, 1958, 1958, 1969, 1958, 1969, 1969, 0, 0, 0, 0, 3035, 3118, 3147, 3147, 3118, 3118, 3118, 3118, 3118, 3118, 3118, 3090, 3090, 3090, 3062, 3062, 3062, 3035, 3035, 3035, 3035, 3035, 3035, 3035, 3008, 3008, 3008, 3008, 3008, 3008, 3008, 3008, 2982, 2982, 2982, 2982, 2956, 2956, 2956, 2956, 2956, 2931, 2931, 2931, 2931, 2931, 2931, 2931, 2906, 2906, 2906, 2906, 2906, 2906, 2882, 2882, 2882, 2882, 2882, 2882, 2858, 2858, 2858, 2858, 2858, 2834, 2834, 2834, 2834, 2834, 2811, 2811, 2811, 2811, 2811, 2811, 2788, 2788, 2788, 2788, 2788, 2765, 2765, 2765, 2765, 2743, 2743, 2743, 2743, 2743, 2743, 2743, 2743, 2721, 2721, 2721, 2721, 2700, 2700, 2700, 2700, 2700, 2679, 2679, 2679, 2679, 2658, 2658, 2658, 2658, 2658, 2637, 2637, 2637, 2617, 2617, 2617, 2597, 2578, 2578, 0, 0, 0, 2077, 2064, 2064, 2064, 2064, 2064, 2064, 2052, 2052, 2052, 2040, 2040, 2040, 2040, 2040, 2040, 2040, 2040, 2028, 2028, 2028, 2028, 2016, 2016, 2016, 2016, 2016, 2016, 2004, 2004, 2004, 2004, 1992, 1992, 1992, 1992, 1992, 1992, 1992, 1992, 1992, 0, 0, 0, 0, 0, 2414, 2414, 2414, 2414, 2431, 2431, 2431, 2431, 2431, 2431, 2431, 2414, 2414, 2414, 2414, 2397, 2397, 2380, 2380, 2380, 2364, 2364, 2364, 2364, 2364, 2364, 2364, 2364, 2364, 2364, 2364, 2364, 2364, 2364, 2364, 2348, 2348, 2348, 2348, 2348, 2348, 2332, 2332, 2332, 2316, 2316, 2316, 2316, 2316, 2300, 2300, 2300, 2300, 2300, 2300, 2300, 2300, 2300, 2300, 2285, 2285, 2285, 2285, 2285, 2285, 2285, 2285, 2285, 2285, 2285, 2285, 2285, 2285, 2270, 2270, 2270, 2270, 2255, 2255, 2240, 2240, 2240, 2225, 2225, 2225, 2225, 2225, 2225, 2225, 2225, 2225, 2225, 2225, 2225, 2225, 2225, 2225, 2211, 2211, 2211, 2211, 2211, 2197, 2197, 2197, 2197, 2197, 2197 ]
