%YAML 1.0
---
depth: !!opencv-matrix
   rows: 31
   cols: 545
   dt: w
   data: [ 4291, 4291, 4291, 4291, 4238, 4238, 4238, 4291, 4291, 4291, 4291, 4291, 4291, 4346, 4346, 4346, 4346, 4346, 4346, 4346, 4346, 4346, 4346, 4346, 4402, 4402, 4402, 4402, 4402, 4402, 4402, 4402, 4402, 4402, 4402, 4402, 4402, 4402, 4402, 4459, 4459, 4459, 4459, 4459, 4459, 4459, 4459, 4459, 4459, 4402, 4402, 4402, 4402, 4402, 4402, 4346, 4346, 4346, 4346, 4346, 4346, 4291, 4291, 4238, 4238, 4238, 4238, 4238, 4186, 4186, 4186, 4186, 4136, 4136, 4136, 4136, 4136, 4136, 4136, 4086, 4086, 4086, 4038, 4038, 4038, 4038, 3991, 3991, 3991, 3991, 3991, 3991, 3991, 3991, 3945, 3945, 3945, 3945, 3945, 3945, 3945, 3945, 3900, 3900, 3856, 3856, 3856, 3813, 3813, 3813, 3813, 3813, 3813, 3813, 3813, 3813, 3813, 3813, 3813, 3813, 3856, 3856, 3856, 3856, 3900, 3900, 3900, 3900, 3900, 3900, 3900, 3900, 3900, 3900, 3945, 3945, 3945, 3945, 3945, 3945, 3991, 3991, 3991, 3991, 3991, 3991, 3991, 4038, 4038, 4038, 4038, 4038, 4038, 4038, 4038, 4038, 4038, 4038, 4038, 4038, 4038, 4038, 4038, 4038, 4038, 4038, 4038, 4038, 4038, 4038, 4038, 4038, 4038, 4038, 4038, 4038, 4038, 4038, 4038, 3991, 3991, 3991, 3991, 3945, 3945, 3945, 3945, 3945, 3945, 3945, 3945, 3945, 3945, 3945, 3900, 3900, 3900, 3900, 3900, 3900, 3856, 3856, 3856, 3856, 3856, 3856, 3856, 3856, 3813, 3813, 3813, 3813, 3771, 3771, 3771, 3771, 3771, 3771, 3771, 3730, 3730, 0, 0, 0, 0, 0, 0, 0, 0, 0, 0, 0, 0, 0, 0, 0, 0, 0, 0, 0, 0, 0, 0, 0, 0, 0, 0, 0, 0, 0, 0, 0, 0, 0, 0, 0, 0, 0, 0, 0, 0, 0, 0, 0, 0, 0, 0, 0, 0, 0, 0, 0, 0, 0, 0, 0, 0, 0, 0, 0, 0, 0, 0, 0, 0, 0, 0, 0, 0, 0, 0, 0, 0, 0, 0, 0, 0, 0, 0, 0, 0, 0, 0, 0, 0, 0, 0, 0, 0, 0, 0, 0, 0, 0, 0, 0, 0, 0, 0, 0, 3147, 3147, 3147, 3118, 3118, 3118, 3118, 3118, 3090, 3090, 3062, 3062, 3062, 3062, 3035, 3035, 3035, 3035, 3035, 3035, 3008, 3008, 3008, 2982, 2982, 2956, 0, 0, 2906, 2906, 2858, 0, 0, 0, 0, 0, 0, 0, 0, 0, 0, 0, 0, 0, 2906, 2906, 2906, 2906, 2882, 2882, 2882, 2882, 2882, 2882, 2858, 2858, 2858, 2858, 2834, 2834, 2834, 2834, 2834, 2834, 2834, 2834, 2834, 2811, 2811, 2811, 2811, 2811, 2811, 2788, 2788, 2788, 2788, 2788, 2765, 2765, 2765, 2743, 2743, 2743, 2743, 2743, 2743, 2743, 2743, 2743, 2721, 2721, 2721, 2721, 2700, 2700, 2700, 2700, 2700, 2700, 2700, 2679, 2679, 2679, 2679, 2679, 2658, 2658, 2637, 2637, 2637, 2637, 2637, 2617, 2617, 2617, 2617, 2617, 2617, 2617, 2617, 2597, 2597, 2597, 2597, 2597, 2578, 2578, 2578, 2578, 2578, 2578, 2558, 2558, 2558, 2558, 2558, 2558, 2558, 2558, 2539, 2539, 2539, 2539, 2521, 2521, 2521, 2521, 2502, 2502, 2502, 2502, 2502, 2502, 2502, 2502, 2502, 2502, 2484, 2484, 2484, 2484, 2484, 2466, 2466, 2448, 2448, 2448, 2431, 2431, 2431, 2431, 2431, 2431, 2431, 2431, 2414, 2414, 2414, 2414, 2431, 0, 0, 0, 0, 0, 0, 0, 0, 2089, 2102, 0, 0, 0, 0, 0, 0, 0, 0, 0, 0, 0, 0, 0, 0, 0, 0, 0, 0, 0, 0, 0, 0, 0, 0, 0, 0, 0, 0, 0, 0, 0, 0, 0, 0,
       4291, 4291, 4291, 4291, 4291, 4238, 4291, 4291, 4291, 4291, 4291, 4291, 4291, 4346, 4346, 4346, 4346, 4346, 4346, 4346, 4346, 4346, 4346, 4346, 4346, 4402, 4402, 4402, 4402, 4402, 4402, 4402, 4402, 4402, 4402, 4402, 4402, 4402, 4402, 4459, 4459, 4459, 4459, 4459, 4459, 4459, 4459, 4459, 4459, 4402, 4402, 4402, 4402, 4402, 4402, 4402, 4402, 4346, 4346, 4346, 4346, 4291, 4291, 4238, 4238, 4238, 4238, 4238, 4186, 4186, 4186, 4186, 4136, 4136, 4136, 4136, 4136, 4136, 4136, 4086, 4086, 4086, 4038, 4038, 4038, 4038, 3991, 3991, 3991, 3991, 3991, 3991, 3991, 3991, 3945, 3945, 3945, 3945, 3945, 3945, 3945, 3900, 3900, 3856, 3856, 3856, 3856, 3813, 3813, 3813, 3813, 3813, 3813, 3813, 3813, 3813, 3813, 3813, 3813, 3813, 3856, 3856, 3856, 3856, 3900, 3900, 3900, 3900, 3900, 3900, 3900, 3900, 3900, 3945, 3945, 3945, 3945, 3945, 3945, 3945, 3991, 3991, 3991, 3991, 3991, 3991, 3991, 4038, 4038, 4038, 4038, 4038, 4038, 4038, 4038, 4038, 4038, 4038, 4038, 4038, 4038, 4038, 4038, 4038, 4038, 4038, 4038, 4038, 4038, 4038, 4038, 4038, 4038, 4038, 4038, 4038, 4038, 4038, 4038, 3991, 3991, 3991, 3991, 3945, 3945, 3945, 3945, 3945, 3945, 3945, 3945, 3945, 3945, 3945, 3900, 3900, 3900, 3856, 3856, 3856, 3856, 3856, 3856, 3856, 3856, 3856, 3856, 3813, 3813, 3813, 3813, 3813, 3771, 3771, 3771, 3771, 3771, 3771, 3771, 3730, 3612, 3730, 0, 0, 0, 0, 0, 0, 0, 0, 0, 0, 0, 0, 0, 0, 0, 0, 0, 0, 0, 0, 0, 0, 0, 0, 0, 0, 0, 0, 0, 0, 0, 0, 0, 0, 0, 0, 0, 0, 0, 0, 0, 0, 0, 0, 0, 0, 0, 0, 0, 0, 0, 0, 0, 0, 0, 0, 0, 0, 0, 0, 0, 0, 0, 0, 0, 0, 0, 0, 0, 0, 0, 0, 0, 0, 0, 0, 0, 0, 0, 0, 0, 0, 0, 0, 0, 0, 0, 0, 0, 0, 0, 0, 0, 0, 0, 0, 0, 0, 3147, 3147, 3147, 3118, 3118, 3118, 3118, 3118, 3090, 3090, 3090, 3062, 3062, 3062, 3035, 3035, 3035, 3035, 3035, 3035, 3008, 3008, 3008, 2982, 2982, 2956, 2956, 2931, 2906, 2906, 2834, 0, 0, 0, 0, 0, 0, 0, 0, 0, 0, 0, 0, 0, 2906, 2906, 2906, 2906, 2882, 2882, 2882, 2882, 2882, 2858, 2858, 2858, 2858, 2858, 2834, 2834, 2834, 2834, 2834, 2834, 2834, 2834, 2834, 2811, 2811, 2811, 2811, 2811, 2811, 2788, 2788, 2788, 2788, 2788, 2765, 2765, 2765, 2765, 2765, 2743, 2743, 2743, 2743, 2743, 2743, 2743, 2743, 2721, 2721, 2721, 2700, 2700, 2700, 2700, 2700, 2700, 2679, 2679, 2679, 2679, 2658, 2658, 2658, 2658, 2637, 2637, 2637, 2637, 2617, 2617, 2617, 2617, 2617, 2617, 2617, 2617, 2597, 2597, 2597, 2597, 2597, 2597, 2578, 2578, 2578, 2578, 2578, 2578, 2558, 2558, 2558, 2558, 2558, 2558, 2558, 2558, 2539, 2539, 2539, 2539, 2521, 2521, 2521, 2502, 2502, 2502, 2502, 2502, 2502, 2502, 2502, 2502, 2502, 2502, 2484, 2484, 2484, 2484, 2484, 2484, 2466, 2448, 2448, 2448, 2431, 2431, 2431, 2431, 2431, 2431, 2431, 2431, 2414, 2414, 2414, 2414, 2431, 0, 0, 0, 0, 0, 0, 0, 0, 2102, 2115, 2102, 0, 0, 0, 0, 0, 0, 0, 0, 0, 0, 0, 0, 0, 0, 0, 0, 0, 0, 0, 0, 0, 0, 0, 0, 0, 0, 0, 0, 0, 0, 0, 0, 0,
       4291, 4291, 4291, 4291, 4291, 4291, 4291, 4291, 4291, 4291, 4291, 4291, 4291, 4346, 4346, 4346, 4346, 4346, 4346, 4346, 4346, 4346, 4346, 4346, 4346, 4402, 4402, 4402, 4402, 4402, 4402, 4402, 4402, 4402, 4402, 4402, 4402, 4402, 4402, 4459, 4459, 4459, 4459, 4459, 4402, 4402, 4402, 4402, 4402, 4402, 4402, 4402, 4402, 4402, 4402, 4402, 4402, 4346, 4346, 4346, 4346, 4291, 4291, 4238, 4238, 4238, 4238, 4186, 4186, 4186, 4186, 4186, 4136, 4136, 4136, 4136, 4136, 4136, 4136, 4086, 4086, 4086, 4038, 4038, 4038, 4038, 4038, 3991, 3991, 3991, 3991, 3991, 3991, 3991, 3945, 3945, 3945, 3945, 3945, 3945, 3945, 3900, 3900, 3856, 3856, 3856, 3856, 3813, 3813, 3813, 3813, 3813, 3813, 3813, 3813, 3813, 3813, 3813, 3813, 3856, 3856, 3856, 3856, 3900, 3900, 3900, 3900, 3900, 3900, 3900, 3900, 3900, 3900, 3945, 3945, 3945, 3945, 3945, 3945, 3945, 3991, 3991, 3991, 3991, 3991, 3991, 3991, 4038, 4038, 3991, 4038, 4038, 4038, 4038, 4038, 4038, 4038, 4038, 4038, 4038, 4038, 4038, 3991, 3991, 3991, 3991, 4038, 4038, 4038, 4038, 4038, 4038, 4038, 4038, 4038, 4038, 4038, 4038, 4038, 4038, 3991, 3991, 3991, 3991, 3945, 3945, 3945, 3945, 3945, 3945, 3945, 3945, 3945, 3900, 3900, 3900, 3900, 3856, 3856, 3856, 3856, 3856, 3856, 3856, 3856, 3856, 3856, 3856, 3856, 3813, 3813, 3813, 3771, 3771, 3771, 3771, 3771, 3771, 3771, 3730, 3730, 0, 0, 0, 0, 0, 0, 0, 0, 0, 0, 0, 0, 0, 0, 0, 0, 0, 0, 0, 0, 0, 0, 0, 0, 0, 0, 0, 0, 0, 0, 0, 0, 0, 0, 0, 0, 0, 0, 0, 0, 0, 0, 0, 0, 0, 0, 0, 0, 0, 0, 0, 0, 0, 0, 0, 0, 0, 0, 0, 0, 0, 0, 0, 0, 0, 0, 0, 0, 0, 0, 0, 0, 0, 0, 0, 0, 0, 0, 0, 0, 0, 0, 0, 0, 0, 0, 0, 0, 0, 0, 0, 0, 0, 0, 0, 0, 0, 0, 0, 3147, 3147, 3147, 3118, 3118, 3118, 3118, 3118, 3090, 3090, 3090, 3062, 3062, 3035, 3035, 3035, 3035, 3035, 3035, 3008, 3008, 3008, 3008, 2982, 2982, 2982, 2956, 2931, 2931, 2906, 2858, 0, 0, 0, 0, 0, 0, 0, 0, 0, 0, 0, 2931, 2906, 2906, 2906, 2906, 2906, 2882, 2882, 2882, 2882, 2882, 2858, 2858, 2858, 2858, 2858, 2834, 2834, 2834, 2834, 2834, 2834, 2834, 2834, 2834, 2811, 2811, 2811, 2811, 2811, 2788, 2788, 2788, 2788, 2788, 2788, 2765, 2765, 2765, 2765, 2765, 2743, 2743, 2743, 2743, 2743, 2743, 2743, 2743, 2721, 2721, 2721, 2700, 2700, 2700, 2700, 2700, 2700, 2679, 2679, 2679, 2679, 2679, 2658, 2658, 2658, 2637, 2637, 2637, 2637, 2637, 2637, 2617, 2617, 2617, 2617, 2597, 2597, 2597, 2597, 2597, 2597, 2597, 2597, 2578, 2578, 2578, 2578, 2578, 2558, 2558, 2558, 2558, 2558, 2558, 2558, 2558, 2558, 2539, 2539, 2539, 2539, 2539, 2521, 2521, 2521, 2502, 2502, 2502, 2502, 2502, 2502, 2502, 2502, 2502, 2502, 2484, 2484, 2484, 2484, 2484, 2484, 2466, 2466, 2448, 2448, 2448, 2431, 2431, 2431, 2431, 2431, 2431, 2431, 2431, 2414, 2431, 2431, 2431, 0, 0, 0, 0, 0, 0, 0, 0, 2102, 2115, 2115, 0, 0, 0, 0, 0, 0, 0, 0, 0, 0, 0, 0, 0, 0, 0, 0, 0, 0, 0, 0, 0, 0, 0, 0, 0, 0, 0, 0, 0, 0, 0, 0, 0,
       4346, 4291, 4291, 4291, 4291, 4291, 4291, 4291, 4291, 4291, 4291, 4291, 4291, 4346, 4346, 4346, 4346, 4346, 4346, 4346, 4346, 4346, 4346, 4346, 4346, 4346, 4402, 4402, 4402, 4402, 4402, 4402, 4402, 4402, 4402, 4402, 4402, 4402, 4402, 4459, 4459, 4459, 4459, 4459, 4459, 4459, 4459, 4459, 4459, 4402, 4402, 4402, 4402, 4402, 4402, 4402, 4346, 4346, 4346, 4346, 4346, 4291, 4291, 4238, 4238, 4238, 4238, 4186, 4186, 4186, 4186, 4186, 4136, 4136, 4136, 4136, 4136, 4136, 4136, 4086, 4086, 4086, 4086, 4086, 4038, 4038, 4038, 4038, 4038, 3991, 3991, 3991, 3991, 3991, 3991, 3945, 3945, 3945, 3945, 3945, 3945, 3900, 3900, 3856, 3856, 3856, 3856, 3813, 3813, 3813, 3813, 3813, 3813, 3813, 3813, 3813, 3813, 3813, 3813, 3856, 3856, 3856, 3856, 3856, 3900, 3900, 3900, 3900, 3900, 3900, 3900, 3900, 3900, 3900, 3945, 3945, 3945, 3945, 3945, 3945, 3991, 3991, 3991, 3991, 3991, 3991, 3991, 3991, 3991, 3991, 4038, 4038, 3991, 3991, 3991, 3991, 3991, 3991, 3991, 4038, 4038, 4038, 3991, 3991, 3991, 3991, 3991, 3991, 3991, 4038, 4038, 4038, 4038, 4038, 4038, 4038, 4038, 4038, 4038, 4038, 3991, 3991, 3991, 3991, 3991, 3945, 3945, 3945, 3945, 3945, 3945, 3945, 3900, 3900, 3900, 3900, 3900, 3856, 3856, 3856, 3856, 3856, 3856, 3856, 3856, 3856, 3856, 3856, 3856, 3813, 3813, 3813, 3771, 3771, 3771, 3771, 3771, 3771, 3771, 3730, 3730, 0, 0, 0, 0, 0, 0, 0, 0, 0, 0, 0, 0, 0, 0, 0, 0, 0, 0, 0, 0, 0, 0, 0, 0, 0, 0, 0, 0, 0, 0, 0, 0, 0, 0, 0, 0, 0, 0, 0, 0, 0, 0, 0, 0, 0, 0, 0, 0, 0, 0, 0, 0, 0, 0, 0, 0, 0, 0, 0, 0, 0, 0, 0, 0, 0, 0, 0, 0, 0, 0, 0, 0, 0, 0, 0, 0, 0, 0, 0, 0, 0, 0, 0, 0, 0, 0, 0, 0, 0, 0, 0, 0, 0, 0, 0, 0, 0, 0, 3176, 3147, 3147, 3147, 3118, 3118, 3118, 3118, 3118, 3090, 3090, 3090, 3062, 3062, 3035, 3035, 3035, 3035, 3035, 3035, 3008, 3008, 3008, 3008, 3008, 2982, 2982, 2982, 2956, 2931, 2931, 2931, 2858, 0, 0, 0, 0, 0, 0, 0, 0, 0, 2931, 2931, 2931, 2906, 2906, 2906, 2906, 2882, 2882, 2882, 2882, 2882, 2858, 2858, 2858, 2858, 2858, 2834, 2834, 2834, 2834, 2834, 2834, 2834, 2834, 2834, 2811, 2811, 2811, 2811, 2811, 2788, 2788, 2788, 2788, 2788, 2788, 2765, 2765, 2765, 2765, 2765, 2765, 2743, 2743, 2743, 2743, 2743, 2743, 2721, 2721, 2721, 2721, 2700, 2700, 2700, 2700, 2700, 2700, 2679, 2679, 2679, 2679, 2679, 2679, 2658, 2658, 2658, 2637, 2637, 2637, 2637, 2637, 2617, 2617, 2617, 2617, 2617, 2597, 2597, 2597, 2597, 2597, 2597, 2597, 2578, 2578, 2578, 2578, 2578, 2558, 2558, 2558, 2558, 2558, 2558, 2558, 2558, 2558, 2539, 2539, 2539, 2539, 2521, 2521, 2521, 2521, 2502, 2502, 2502, 2502, 2502, 2502, 2502, 2502, 2502, 2502, 2484, 2484, 2484, 2484, 2484, 2484, 2466, 2466, 2448, 2448, 2448, 2431, 2431, 2431, 2431, 2431, 2431, 2431, 2431, 2431, 2431, 2431, 2431, 2431, 0, 0, 0, 0, 0, 2102, 2115, 2115, 0, 0, 0, 0, 0, 0, 0, 0, 0, 0, 0, 0, 0, 0, 0, 0, 0, 0, 0, 0, 0, 0, 0, 0, 0, 0, 0, 0, 0, 0, 0, 0, 0, 0, 0,
       4291, 4291, 4291, 4291, 4291, 4291, 4291, 4291, 4291, 4291, 4291, 4291, 4291, 4346, 4346, 4346, 4346, 4346, 4346, 4346, 4346, 4346, 4346, 4346, 4402, 4402, 4402, 4402, 4402, 4402, 4402, 4402, 4402, 4402, 4402, 4402, 4402, 4459, 4459, 4459, 4459, 4459, 4459, 4459, 4459, 4459, 4459, 4459, 4459, 4402, 4402, 4402, 4402, 4402, 4402, 4402, 4346, 4346, 4346, 4346, 4291, 4291, 4291, 4238, 4238, 4238, 4238, 4186, 4186, 4186, 4186, 4136, 4136, 4136, 4136, 4136, 4136, 4136, 4136, 4086, 4086, 4086, 4086, 4086, 4086, 4086, 4038, 4038, 4038, 4038, 3991, 3991, 3991, 3991, 3991, 3945, 3945, 3945, 3945, 3945, 3945, 3900, 3900, 3900, 3856, 3856, 3856, 3856, 3856, 3813, 3813, 3813, 3813, 3813, 3813, 3813, 3813, 3813, 3813, 3856, 3856, 3856, 3856, 3856, 3900, 3900, 3900, 3900, 3900, 3900, 3900, 3900, 3900, 3900, 3945, 3945, 3945, 3945, 3945, 3945, 3991, 3991, 3991, 3991, 3991, 3991, 3991, 3991, 3991, 3991, 3991, 4038, 4038, 4038, 4038, 4038, 4038, 4038, 4038, 4038, 4038, 4038, 3991, 3991, 3991, 3991, 3991, 3991, 3991, 4038, 4038, 4038, 4038, 4038, 4038, 4038, 4038, 4038, 4038, 4038, 4038, 3991, 3991, 3991, 3991, 3991, 3945, 3945, 3945, 3945, 3945, 3945, 3945, 3900, 3900, 3900, 3900, 3856, 3856, 3856, 3856, 3856, 3856, 3856, 3856, 3856, 3856, 3856, 3813, 3813, 3813, 3813, 3771, 3771, 3771, 3771, 3771, 3771, 3730, 3730, 3730, 0, 0, 0, 0, 0, 0, 0, 0, 0, 0, 0, 0, 0, 0, 0, 0, 0, 0, 0, 0, 0, 0, 0, 0, 0, 0, 0, 0, 0, 0, 0, 0, 0, 0, 0, 0, 0, 0, 0, 0, 0, 0, 0, 0, 0, 0, 0, 0, 0, 0, 0, 0, 0, 0, 0, 0, 0, 0, 0, 0, 0, 0, 0, 0, 0, 0, 0, 0, 0, 0, 0, 0, 0, 0, 0, 0, 0, 0, 0, 0, 0, 0, 0, 0, 0, 0, 0, 0, 0, 0, 0, 0, 0, 0, 0, 0, 0, 0, 3147, 3147, 3147, 3147, 3147, 3147, 3118, 3118, 3118, 3090, 3090, 3090, 3062, 3062, 3062, 3035, 3035, 3035, 3035, 3035, 3008, 3008, 3008, 3008, 3008, 2982, 2982, 2982, 2956, 2931, 2931, 2931, 2882, 0, 0, 0, 0, 0, 0, 0, 0, 0, 2931, 2931, 2931, 2906, 2906, 2906, 2906, 2906, 2882, 2882, 2882, 2882, 2858, 2858, 2858, 2858, 2858, 2858, 2834, 2834, 2834, 2834, 2834, 2834, 2834, 2834, 2811, 2811, 2811, 2811, 2811, 2788, 2788, 2788, 2788, 2788, 2788, 2765, 2765, 2765, 2765, 2765, 2743, 2743, 2743, 2743, 2743, 2743, 2743, 2721, 2721, 2721, 2721, 2700, 2700, 2700, 2700, 2700, 2700, 2700, 2700, 2679, 2679, 2679, 2679, 2658, 2658, 2658, 2637, 2637, 2637, 2637, 2637, 2617, 2617, 2617, 2617, 2617, 2617, 2597, 2597, 2597, 2597, 2597, 2578, 2578, 2578, 2578, 2578, 2578, 2558, 2558, 2558, 2558, 2558, 2558, 2558, 2539, 2539, 2539, 2539, 2539, 2539, 2521, 2521, 2521, 2521, 2502, 2502, 2502, 2502, 2502, 2502, 2502, 2502, 2502, 2502, 2484, 2484, 2484, 2484, 2484, 2484, 2466, 2466, 2448, 2448, 2448, 2431, 2431, 2431, 2431, 2431, 2431, 2431, 2431, 2431, 2431, 2431, 2431, 2431, 2431, 2397, 2089, 2077, 2089, 2102, 2115, 2115, 0, 0, 0, 0, 0, 0, 0, 0, 0, 0, 0, 0, 0, 0, 0, 0, 0, 0, 0, 0, 0, 0, 0, 0, 0, 0, 0, 0, 0, 0, 0, 0, 0, 0, 0,
       4291, 4291, 4291, 4291, 4291, 4291, 4291, 4291, 4291, 4291, 4291, 4291, 4291, 4291, 4291, 4291, 4346, 4346, 4346, 4346, 4346, 4346, 4346, 4346, 4402, 4402, 4402, 4402, 4402, 4402, 4402, 4402, 4402, 4402, 4402, 4402, 4402, 4459, 4459, 4459, 4459, 4459, 4459, 4459, 4459, 4459, 4459, 4459, 4459, 4459, 4402, 4402, 4402, 4402, 4402, 4402, 4346, 4346, 4346, 4291, 4291, 4291, 4238, 4238, 4238, 4238, 4186, 4186, 4186, 4186, 4186, 4186, 4136, 4136, 4136, 4136, 4136, 4136, 4136, 4086, 4086, 4086, 4086, 4086, 4086, 4086, 4038, 4038, 4038, 4038, 3991, 3991, 3991, 3991, 3991, 3945, 3945, 3945, 3945, 3945, 3945, 3900, 3900, 3856, 3856, 3856, 3856, 3856, 3856, 3856, 3813, 3813, 3813, 3813, 3813, 3856, 3856, 3856, 3856, 3856, 3856, 3856, 3856, 3856, 3856, 3856, 3900, 3900, 3900, 3900, 3900, 3900, 3900, 3945, 3945, 3945, 3945, 3945, 3991, 3991, 3991, 3991, 3991, 3991, 3991, 3991, 3991, 3991, 3991, 3991, 3991, 3991, 4038, 4038, 4038, 4038, 4038, 4038, 4038, 4038, 4038, 4038, 3991, 3991, 3991, 3991, 3991, 3991, 3991, 4038, 4038, 4038, 4038, 4038, 4038, 4038, 4038, 4038, 4038, 4038, 3991, 3991, 3991, 3991, 3991, 3991, 3945, 3945, 3945, 3945, 3945, 3945, 3945, 3945, 3900, 3900, 3900, 3900, 3856, 3856, 3856, 3856, 3856, 3856, 3856, 3856, 3856, 3856, 3813, 3813, 3813, 3813, 3771, 3771, 3771, 3771, 3771, 3771, 3771, 3730, 3730, 0, 0, 0, 0, 0, 0, 0, 0, 0, 0, 0, 0, 0, 0, 0, 0, 0, 0, 0, 0, 0, 0, 0, 0, 0, 0, 0, 0, 0, 0, 0, 0, 0, 0, 0, 0, 0, 0, 0, 0, 0, 0, 0, 0, 0, 0, 0, 0, 0, 0, 0, 0, 0, 0, 0, 0, 0, 0, 0, 0, 0, 0, 0, 0, 0, 0, 0, 0, 0, 0, 0, 0, 0, 0, 0, 0, 0, 0, 0, 0, 0, 0, 0, 0, 0, 0, 0, 0, 0, 0, 0, 0, 0, 0, 0, 0, 0, 3176, 3176, 3147, 3147, 3147, 3147, 3147, 3118, 3118, 3118, 3090, 3090, 3090, 3062, 3062, 3062, 3035, 3035, 3035, 3035, 3035, 3035, 3008, 3008, 3008, 3008, 3008, 2982, 2982, 2956, 2956, 2956, 2931, 2906, 0, 0, 0, 0, 0, 0, 0, 0, 0, 2931, 2931, 2931, 2906, 2906, 2906, 2906, 2906, 2882, 2882, 2882, 2882, 2858, 2858, 2858, 2858, 2858, 2858, 2834, 2834, 2834, 2834, 2834, 2834, 2834, 2834, 2811, 2811, 2811, 2811, 2811, 2788, 2788, 2788, 2788, 2788, 2788, 2765, 2765, 2765, 2765, 2765, 2765, 2743, 2743, 2743, 2743, 2743, 2743, 2743, 2721, 2721, 2721, 2721, 2721, 2700, 2700, 2700, 2700, 2700, 2700, 2700, 2679, 2679, 2679, 2658, 2658, 2658, 2637, 2637, 2637, 2637, 2637, 2637, 2617, 2617, 2617, 2617, 2617, 2617, 2597, 2597, 2597, 2597, 2578, 2578, 2578, 2578, 2578, 2578, 2558, 2558, 2558, 2558, 2558, 2558, 2558, 2539, 2539, 2539, 2539, 2539, 2539, 2521, 2521, 2521, 2521, 2521, 2502, 2502, 2502, 2502, 2502, 2502, 2502, 2502, 2502, 2484, 2484, 2484, 2484, 2484, 2466, 2466, 2466, 2448, 2448, 2448, 2431, 2431, 2431, 2431, 2431, 2431, 2431, 2431, 2431, 2431, 2431, 2431, 2431, 2431, 2431, 2102, 2077, 2077, 2089, 2089, 0, 0, 0, 0, 0, 0, 0, 0, 0, 0, 0, 0, 0, 0, 0, 0, 0, 0, 0, 0, 0, 0, 0, 0, 0, 0, 0, 0, 0, 0, 0, 0, 0, 0, 0, 0,
       4291, 4291, 4291, 4291, 4291, 4291, 4238, 4238, 4238, 4238, 4291, 4291, 4291, 4291, 4291, 4291, 4346, 4346, 4346, 4346, 4346, 4346, 4346, 4346, 4346, 4346, 4402, 4402, 4402, 4402, 4402, 4402, 4402, 4402, 4402, 4402, 4402, 4459, 4459, 4459, 4459, 4459, 4459, 4459, 4459, 4459, 4459, 4459, 4459, 4459, 4402, 4402, 4402, 4402, 4402, 4402, 4346, 4346, 4346, 4291, 4291, 4291, 4238, 4238, 4238, 4238, 4186, 4186, 4186, 4186, 4186, 4186, 4136, 4136, 4136, 4186, 4136, 4136, 4136, 4086, 4086, 4086, 4086, 4038, 4038, 4038, 4038, 4038, 4038, 3991, 3991, 3991, 3991, 3945, 3945, 3945, 3945, 3900, 3900, 3945, 3900, 3900, 3900, 3856, 3856, 3856, 3856, 3856, 3856, 3856, 3813, 3813, 3813, 3813, 3813, 3856, 3856, 3856, 3856, 3856, 3856, 3856, 3856, 3856, 3856, 3856, 3900, 3900, 3900, 3900, 3900, 3945, 3945, 3945, 3945, 3945, 3945, 3991, 3991, 3991, 3991, 3991, 3991, 3991, 3991, 3991, 3991, 3991, 3991, 3991, 3991, 3991, 3991, 4038, 4038, 4038, 4038, 4038, 4038, 4038, 4038, 4038, 3991, 3991, 3991, 3991, 3991, 3991, 3991, 4038, 4038, 4038, 4038, 4038, 4038, 4038, 4038, 4038, 4038, 4038, 3991, 3991, 3991, 3991, 3991, 3945, 3945, 3945, 3945, 3945, 3945, 3945, 3945, 3945, 3945, 3900, 3900, 3900, 3900, 3856, 3900, 3900, 3900, 3856, 3856, 3856, 3856, 3856, 3813, 3813, 3813, 3813, 3813, 3813, 3771, 3771, 3771, 3771, 3771, 3730, 3730, 0, 0, 0, 0, 0, 0, 0, 0, 0, 0, 0, 0, 0, 0, 0, 0, 0, 0, 0, 0, 0, 0, 0, 0, 0, 0, 0, 0, 0, 0, 0, 0, 0, 0, 0, 0, 0, 0, 0, 0, 0, 0, 0, 0, 0, 0, 0, 0, 0, 0, 0, 0, 0, 0, 0, 0, 0, 0, 0, 0, 0, 0, 0, 0, 0, 0, 0, 0, 0, 0, 0, 0, 0, 0, 0, 0, 0, 0, 0, 0, 0, 0, 0, 0, 0, 0, 0, 0, 0, 0, 0, 0, 0, 0, 0, 0, 0, 0, 3176, 3147, 3147, 3147, 3147, 3118, 3118, 3118, 3118, 3090, 3090, 3090, 3062, 3062, 3062, 3035, 3035, 3035, 3035, 3035, 3035, 3008, 3008, 3008, 3008, 3008, 2982, 2982, 2982, 2956, 2956, 2931, 2906, 0, 0, 0, 0, 0, 0, 2931, 2931, 2931, 2931, 2931, 2931, 2906, 2906, 2906, 2906, 2906, 2882, 2882, 2882, 2882, 2858, 2858, 2858, 2858, 2858, 2858, 2858, 2858, 2834, 2834, 2834, 2834, 2834, 2834, 2811, 2811, 2811, 2811, 2788, 2788, 2788, 2788, 2788, 2788, 2788, 2765, 2765, 2765, 2765, 2765, 2765, 2743, 2743, 2743, 2743, 2743, 2743, 2721, 2721, 2721, 2721, 2721, 2721, 2721, 2721, 2700, 2700, 2700, 2700, 2700, 2679, 2679, 2679, 2658, 2658, 2658, 2637, 2637, 2637, 2637, 2637, 2637, 2617, 2617, 2617, 2617, 2617, 2617, 2617, 2597, 2597, 2597, 2578, 2578, 2578, 2578, 2578, 2578, 2558, 2558, 2558, 2558, 2558, 2558, 2539, 2539, 2539, 2539, 2539, 2539, 2539, 2521, 2521, 2521, 2521, 2521, 2521, 2502, 2502, 2502, 2502, 2502, 2502, 2502, 2502, 2484, 2484, 2484, 2484, 2484, 2466, 2466, 2466, 2448, 2448, 2448, 2431, 2431, 2431, 2431, 2431, 2414, 2414, 2414, 2414, 2414, 2414, 2414, 2431, 2431, 0, 0, 0, 2077, 0, 0, 0, 0, 0, 0, 0, 0, 0, 0, 0, 0, 0, 0, 0, 0, 0, 0, 0, 0, 0, 0, 0, 0, 0, 0, 0, 0, 0, 0, 0, 0, 0, 0, 0, 0, 0, 0,
       4291, 4291, 4291, 4291, 4291, 4291, 4238, 4238, 4238, 4238, 4291, 4291, 4291, 4291, 4291, 4291, 4291, 4346, 4346, 4346, 4346, 4346, 4346, 4346, 4346, 4346, 4346, 4402, 4402, 4402, 4402, 4402, 4402, 4402, 4402, 4402, 4402, 4402, 4402, 4402, 4459, 4459, 4459, 4459, 4459, 4459, 4459, 4459, 4459, 4459, 4402, 4402, 4402, 4402, 4402, 4346, 4346, 4346, 4346, 4291, 4291, 4291, 4238, 4238, 4238, 4238, 4238, 4186, 4186, 4186, 4186, 4186, 4186, 4186, 4186, 4186, 4136, 4136, 4136, 4086, 4086, 4086, 4086, 4038, 4038, 4038, 4038, 4038, 3991, 3991, 3991, 3991, 3945, 3945, 3945, 3945, 3945, 3900, 3900, 3900, 3900, 3900, 3900, 3856, 3856, 3856, 3856, 3856, 3856, 3856, 3813, 3813, 3813, 3813, 3856, 3856, 3856, 3856, 3856, 3856, 3856, 3856, 3856, 3856, 3856, 3856, 3856, 3900, 3900, 3900, 3900, 3945, 3945, 3945, 3945, 3991, 3991, 3991, 3991, 3991, 3991, 3991, 3991, 3991, 3991, 3991, 3991, 3991, 3991, 3991, 3991, 3991, 3991, 3991, 4038, 4038, 4038, 4038, 4038, 4038, 4038, 4038, 3991, 3991, 3991, 3991, 3991, 3991, 3991, 3991, 4038, 4038, 4038, 4038, 4038, 4038, 4038, 4038, 4038, 4038, 3991, 3991, 3991, 3991, 3945, 3945, 3945, 3945, 3945, 3945, 3945, 3945, 3945, 3945, 3945, 3900, 3900, 3900, 3900, 3856, 3900, 3900, 3856, 3856, 3856, 3856, 3856, 3856, 3813, 3813, 3813, 3813, 3813, 3813, 3771, 3771, 3771, 3771, 3771, 3771, 3771, 0, 0, 0, 0, 0, 0, 0, 0, 0, 0, 0, 0, 0, 0, 0, 0, 0, 0, 0, 0, 0, 0, 0, 0, 0, 0, 0, 0, 0, 0, 0, 0, 0, 0, 0, 0, 0, 0, 0, 0, 0, 0, 0, 0, 0, 0, 0, 0, 0, 0, 0, 0, 0, 0, 0, 0, 0, 0, 0, 0, 0, 0, 0, 0, 0, 0, 0, 0, 0, 0, 0, 0, 0, 0, 0, 0, 0, 0, 0, 0, 0, 0, 0, 0, 0, 0, 0, 0, 0, 0, 0, 0, 0, 0, 0, 0, 0, 0, 3176, 3176, 3147, 3147, 3147, 3118, 3118, 3118, 3118, 3090, 3090, 3090, 3062, 3062, 3062, 3035, 3035, 3035, 3035, 3035, 3035, 3008, 3008, 3008, 3008, 3008, 2982, 2982, 2982, 2956, 2956, 2931, 2906, 0, 0, 2906, 2931, 2931, 2931, 2931, 2931, 2931, 2931, 2931, 2931, 2906, 2906, 2906, 2906, 2906, 2882, 2882, 2882, 2882, 2858, 2858, 2858, 2858, 2858, 2858, 2858, 2858, 2858, 2834, 2834, 2834, 2834, 2834, 2811, 2811, 2811, 2811, 2788, 2788, 2788, 2788, 2788, 2788, 2788, 2765, 2765, 2765, 2765, 2765, 2743, 2743, 2743, 2743, 2743, 2743, 2721, 2721, 2721, 2721, 2721, 2721, 2721, 2721, 2721, 2721, 2700, 2700, 2700, 2700, 2679, 2679, 2679, 2658, 2658, 2658, 2637, 2637, 2637, 2637, 2637, 2637, 2617, 2617, 2617, 2617, 2617, 2617, 2617, 2597, 2597, 2597, 2597, 2578, 2578, 2578, 2578, 2578, 2558, 2558, 2558, 2558, 2558, 2558, 2539, 2539, 2539, 2539, 2539, 2539, 2539, 2521, 2521, 2521, 2521, 2521, 2521, 2502, 2502, 2502, 2502, 2502, 2502, 2502, 2502, 2484, 2484, 2484, 2484, 2484, 2466, 2466, 2466, 2448, 2448, 2448, 2431, 2431, 2431, 2431, 2431, 2431, 2414, 2414, 2414, 2414, 2414, 2414, 2414, 2414, 0, 0, 0, 0, 0, 0, 0, 0, 0, 0, 0, 0, 0, 0, 0, 0, 0, 0, 0, 0, 0, 0, 0, 0, 0, 0, 0, 0, 0, 0, 0, 0, 0, 0, 0, 0, 0, 0, 0, 0, 0, 0,
       4291, 4291, 4291, 4238, 4238, 4238, 4238, 4238, 4238, 4238, 4238, 4291, 4291, 4291, 4291, 4291, 4291, 4291, 4346, 4346, 4346, 4346, 4346, 4346, 4346, 4346, 4346, 4346, 4402, 4402, 4402, 4402, 4402, 4402, 4402, 4402, 4402, 4402, 4402, 4402, 4459, 4459, 4459, 4459, 4459, 4459, 4459, 4459, 4459, 4459, 4402, 4402, 4402, 4402, 4402, 4346, 4346, 4346, 4346, 4291, 4291, 4291, 4291, 4238, 4238, 4238, 4238, 4186, 4186, 4186, 4186, 4186, 4186, 4186, 4186, 4186, 4136, 4136, 4086, 4086, 4086, 4038, 4038, 4038, 4038, 4038, 4038, 4038, 3991, 3991, 3991, 3991, 3991, 3945, 3945, 3945, 3900, 3900, 3900, 3900, 3900, 3900, 3900, 3856, 3856, 3856, 3856, 3856, 3856, 3856, 3813, 3813, 3813, 3813, 3813, 3813, 3856, 3856, 3856, 3856, 3856, 3856, 3856, 3856, 3856, 3856, 3856, 3900, 3900, 3900, 3900, 3945, 3945, 3945, 3945, 3991, 3991, 3991, 3991, 3991, 3991, 3991, 3991, 3991, 3991, 3991, 3991, 3991, 3991, 3991, 3991, 3991, 4038, 4038, 4038, 4038, 4038, 4038, 4038, 3991, 3991, 3991, 3991, 3991, 3991, 3991, 3991, 3991, 3991, 3991, 3991, 4038, 4038, 4038, 4038, 4038, 4038, 4038, 4038, 4038, 3991, 3991, 3991, 3991, 3991, 3945, 3945, 3945, 3945, 3945, 3945, 3945, 3945, 3945, 3945, 3900, 3900, 3900, 3900, 3856, 3856, 3856, 3856, 3856, 3856, 3856, 3856, 3856, 3813, 3813, 3813, 3813, 3813, 3813, 3771, 3771, 3771, 3771, 3730, 3730, 3730, 0, 0, 0, 0, 0, 0, 0, 0, 0, 0, 0, 0, 0, 0, 0, 0, 0, 0, 0, 0, 0, 0, 0, 0, 0, 0, 0, 0, 0, 0, 0, 0, 0, 0, 0, 0, 0, 0, 0, 0, 0, 0, 0, 0, 0, 0, 0, 0, 0, 0, 0, 0, 0, 0, 0, 0, 0, 0, 0, 0, 0, 0, 0, 0, 0, 0, 0, 0, 0, 0, 0, 0, 0, 0, 0, 0, 0, 0, 0, 0, 0, 0, 0, 0, 0, 0, 0, 0, 0, 0, 0, 0, 0, 0, 0, 0, 0, 0, 3176, 3176, 3147, 3147, 3147, 3118, 3118, 3118, 3118, 3090, 3090, 3090, 3062, 3062, 3062, 3035, 3035, 3035, 3035, 3035, 3035, 3035, 3008, 3008, 3008, 3008, 2982, 2982, 2982, 2956, 2956, 2931, 2931, 2931, 0, 2931, 2931, 2931, 2931, 2931, 2931, 2931, 2931, 2931, 2931, 2931, 2906, 2906, 2906, 2906, 2882, 2882, 2882, 2882, 2858, 2858, 2858, 2858, 2858, 2858, 2834, 2834, 2834, 2834, 2834, 2834, 2834, 2811, 2811, 2811, 2811, 2788, 2788, 2788, 2788, 2788, 2788, 2788, 2788, 2765, 2765, 2765, 2765, 2765, 2743, 2743, 2743, 2743, 2743, 2743, 2721, 2721, 2721, 2721, 2721, 2721, 2721, 2721, 2721, 2721, 2700, 2700, 2700, 2679, 2679, 2679, 2679, 2658, 2658, 2658, 2658, 2637, 2637, 2637, 2637, 2637, 2637, 2617, 2617, 2617, 2617, 2617, 2617, 2597, 2597, 2597, 2597, 2597, 2597, 2578, 2578, 2578, 2578, 2558, 2558, 2558, 2558, 2558, 2539, 2539, 2539, 2539, 2539, 2539, 2539, 2539, 2521, 2521, 2521, 2521, 2521, 2521, 2502, 2502, 2502, 2502, 2502, 2502, 2502, 2484, 2484, 2484, 2484, 2484, 2484, 2466, 2466, 2466, 2448, 2448, 2448, 2448, 2431, 2431, 2431, 2431, 2431, 2414, 2414, 2414, 2414, 2414, 2414, 2414, 0, 0, 0, 0, 0, 0, 0, 0, 0, 0, 0, 0, 0, 0, 0, 0, 0, 0, 0, 0, 0, 0, 0, 0, 0, 0, 0, 0, 0, 0, 0, 0, 0, 0, 0, 0, 0, 0, 0, 0, 0, 0,
       4291, 4291, 4291, 4291, 4291, 4291, 4238, 4238, 4238, 4238, 4238, 4291, 4291, 4291, 4291, 4291, 4291, 4291, 4291, 4346, 4346, 4346, 4346, 4346, 4346, 4346, 4346, 4346, 4402, 4402, 4402, 4402, 4402, 4402, 4402, 4402, 4402, 4402, 4402, 4402, 4459, 4459, 4459, 4459, 4459, 4402, 4402, 4402, 4402, 4402, 4402, 4402, 4402, 4402, 4346, 4346, 4346, 4346, 4346, 4291, 4291, 4291, 4291, 4238, 4238, 4238, 4238, 4186, 4186, 4186, 4186, 4186, 4186, 4186, 4136, 3991, 0, 0, 0, 4086, 4086, 4038, 4038, 4038, 4038, 4038, 4038, 4038, 3991, 3991, 3991, 3991, 3991, 3945, 3945, 3945, 3945, 3945, 3945, 3945, 3945, 3900, 3900, 3900, 3856, 3856, 3856, 3856, 3856, 3813, 3813, 3813, 3813, 3813, 3813, 3813, 3813, 3856, 3856, 3856, 3856, 3856, 3856, 3856, 3856, 3856, 3856, 3900, 3900, 3900, 3900, 3945, 3900, 3945, 3945, 3991, 3991, 3991, 3991, 3991, 3991, 3991, 3991, 3991, 3991, 3991, 3991, 3991, 3991, 3991, 3991, 3991, 4038, 4038, 4038, 4038, 4038, 4038, 4038, 3991, 3991, 3991, 3991, 3991, 3991, 3991, 3991, 3991, 3991, 3991, 3991, 4038, 4038, 4038, 4038, 4038, 4038, 3991, 4038, 4038, 3991, 3991, 3991, 3991, 3991, 3945, 3945, 3945, 3945, 3945, 3945, 3945, 3945, 3945, 3945, 3900, 3900, 3900, 3900, 3856, 3856, 3856, 3856, 3856, 3856, 3856, 3856, 3856, 3813, 3813, 3813, 3813, 3813, 3813, 3771, 3771, 3771, 3730, 3730, 3730, 3730, 0, 0, 0, 0, 0, 0, 0, 0, 0, 0, 0, 0, 0, 0, 0, 0, 0, 0, 0, 0, 0, 0, 0, 0, 0, 0, 0, 0, 0, 0, 0, 0, 0, 0, 0, 0, 0, 0, 0, 0, 0, 0, 0, 0, 0, 0, 0, 0, 0, 0, 0, 0, 0, 0, 0, 0, 0, 0, 0, 0, 0, 0, 0, 0, 0, 0, 0, 0, 0, 0, 0, 0, 0, 0, 0, 0, 0, 0, 0, 0, 0, 0, 0, 0, 0, 0, 0, 0, 0, 0, 0, 0, 0, 0, 0, 0, 0, 0, 0, 3176, 3147, 3147, 3147, 3118, 3118, 3118, 3118, 3090, 3090, 3090, 3062, 3062, 3062, 3035, 3035, 3035, 3035, 3035, 3035, 3035, 3008, 3008, 3008, 3008, 2982, 2982, 2982, 2956, 2956, 2931, 2931, 2931, 2931, 2931, 2931, 2931, 2931, 2931, 2931, 2931, 2931, 2931, 2931, 2906, 2906, 2906, 2906, 2906, 2882, 2882, 2882, 2882, 2858, 2858, 2858, 2858, 2858, 2858, 2834, 2834, 2834, 2834, 2834, 2834, 2811, 2811, 2811, 2811, 2811, 2788, 2788, 2788, 2788, 2788, 2788, 2788, 2788, 2765, 2765, 2765, 2765, 2765, 2765, 2743, 2743, 2743, 2743, 2743, 2721, 2721, 2721, 2721, 2721, 2721, 2721, 2721, 2700, 2700, 2700, 2700, 2679, 2679, 2679, 2679, 2658, 2658, 2658, 2658, 2658, 2637, 2637, 2637, 2637, 2637, 2637, 2617, 2617, 2617, 2617, 2617, 2617, 2597, 2597, 2597, 2597, 2597, 2597, 2578, 2578, 2578, 2578, 2558, 2558, 2558, 2558, 2558, 2539, 2539, 2539, 2539, 2539, 2539, 2539, 2521, 2521, 2521, 2521, 2521, 2521, 2521, 2502, 2502, 2502, 2502, 2502, 2502, 2502, 2484, 2484, 2484, 2484, 2484, 2484, 2466, 2466, 2466, 2448, 2448, 2448, 2448, 2448, 2431, 2431, 2431, 2431, 2414, 2414, 2414, 2414, 2414, 2414, 2414, 0, 0, 0, 0, 0, 0, 0, 0, 0, 0, 0, 0, 0, 0, 0, 0, 0, 0, 0, 0, 0, 0, 0, 0, 0, 0, 0, 0, 0, 0, 0, 0, 0, 0, 0, 0, 0, 0, 0, 0, 0, 2004,
       4291, 4291, 4291, 4291, 4291, 4291, 4238, 4238, 4238, 4238, 4238, 4291, 4291, 4291, 4291, 4291, 4291, 4291, 4291, 4346, 4346, 4346, 4346, 4346, 4346, 4346, 4346, 4346, 4402, 4402, 4402, 4402, 4402, 4402, 4402, 4402, 4402, 4402, 4402, 4402, 4402, 4402, 4459, 4459, 4459, 4402, 4402, 4402, 4402, 4402, 4402, 4402, 4402, 4402, 4346, 4346, 4346, 4346, 4346, 4291, 4291, 4291, 4291, 4238, 4238, 4238, 4186, 4186, 4186, 4186, 0, 0, 0, 0, 0, 0, 0, 0, 0, 0, 4086, 4086, 3813, 3900, 4038, 4038, 4038, 4038, 3991, 3991, 3991, 3991, 3991, 3991, 3945, 3945, 3945, 3945, 3945, 3945, 3945, 3900, 3900, 3900, 3856, 3856, 3856, 3813, 3813, 3813, 3813, 3813, 3813, 3813, 3813, 3813, 3813, 3856, 3856, 3856, 3813, 3856, 3856, 3856, 3856, 3856, 3856, 3900, 3900, 3900, 3900, 3900, 3900, 3945, 3945, 3945, 3945, 3945, 3945, 3991, 3991, 3991, 3991, 3991, 3991, 3991, 3991, 3991, 3991, 3991, 3991, 3991, 4038, 4038, 4038, 4038, 4038, 3991, 3991, 3991, 3991, 3991, 3991, 3991, 3991, 3991, 3991, 3991, 3991, 3991, 3991, 4038, 4038, 4038, 3991, 4038, 4038, 3991, 3991, 3991, 3991, 3991, 3991, 3991, 3991, 3945, 3945, 3945, 3945, 3945, 3945, 3945, 3945, 3900, 3945, 3900, 3900, 3900, 3900, 3856, 3856, 3856, 3856, 3856, 3856, 3856, 3856, 3856, 3813, 3813, 3813, 3813, 3813, 3813, 3771, 3771, 3771, 3771, 3730, 3771, 3771, 3856, 0, 0, 0, 0, 0, 0, 0, 0, 0, 0, 0, 0, 0, 0, 0, 0, 0, 0, 0, 0, 0, 0, 0, 0, 0, 0, 0, 0, 0, 0, 0, 0, 0, 0, 0, 0, 0, 0, 0, 0, 0, 0, 0, 0, 0, 0, 0, 0, 0, 0, 0, 0, 0, 0, 0, 0, 0, 0, 0, 0, 0, 0, 0, 0, 0, 0, 0, 0, 0, 0, 0, 0, 0, 0, 0, 0, 0, 0, 0, 0, 0, 0, 0, 0, 0, 0, 0, 0, 0, 0, 0, 0, 0, 0, 0, 0, 0, 0, 0, 0, 3147, 3147, 3147, 3118, 3118, 3118, 3090, 3090, 3090, 3062, 3062, 3062, 3035, 3035, 3035, 3035, 3035, 3035, 3008, 3008, 3008, 3008, 3008, 2982, 2982, 2982, 2956, 2956, 2931, 2931, 2931, 2931, 2931, 2931, 2931, 2931, 2931, 2931, 2931, 2931, 2931, 2931, 2906, 2906, 2906, 2906, 2906, 2882, 2882, 2882, 2882, 2858, 2858, 2858, 2858, 2858, 2858, 2858, 2834, 2834, 2834, 2834, 2811, 2811, 2811, 2811, 2811, 2811, 2788, 2788, 2788, 2788, 2788, 2788, 2788, 2765, 2765, 2765, 2765, 2765, 2765, 2765, 2743, 2743, 2743, 2743, 2743, 2721, 2721, 2721, 2721, 2721, 2721, 2721, 2721, 2700, 2700, 2700, 2679, 2679, 2679, 2679, 2679, 2658, 2658, 2658, 2658, 2658, 2658, 2637, 2637, 2637, 2637, 2637, 2637, 2617, 2617, 2617, 2617, 2617, 2617, 2597, 2597, 2597, 2597, 2578, 2578, 2578, 2578, 2578, 2558, 2558, 2558, 2558, 2558, 2539, 2539, 2539, 2539, 2539, 2539, 2539, 2521, 2521, 2521, 2521, 2521, 2521, 2521, 2502, 2502, 2502, 2502, 2502, 2502, 2502, 2484, 2484, 2484, 2484, 2484, 2484, 2466, 2466, 2466, 2448, 2448, 2448, 2448, 2448, 2448, 2431, 2431, 2431, 2431, 2414, 2414, 2414, 2414, 2414, 2414, 0, 0, 0, 0, 0, 0, 0, 0, 2102, 0, 0, 0, 0, 0, 0, 0, 0, 0, 0, 0, 0, 0, 0, 0, 0, 0, 0, 0, 0, 0, 0, 0, 0, 0, 0, 0, 0, 0, 0, 0, 2016, 2004,
       4291, 4291, 4238, 4291, 4291, 4238, 4238, 4238, 4238, 4291, 4291, 4291, 4291, 4291, 4291, 4291, 4291, 4291, 4346, 4346, 4346, 4346, 4346, 4346, 4346, 4346, 4346, 4346, 4402, 4402, 4402, 4402, 4402, 4402, 4402, 4402, 4402, 4402, 4402, 4402, 4402, 4402, 4459, 4459, 4459, 4402, 4402, 4402, 4402, 4402, 4402, 4402, 4402, 4402, 4346, 4346, 4346, 4346, 4291, 4291, 4238, 4238, 4238, 4238, 4238, 4238, 4186, 4186, 4186, 4136, 0, 0, 0, 0, 0, 0, 0, 0, 0, 0, 4038, 4086, 0, 0, 3991, 4038, 4038, 4038, 3991, 3991, 3991, 3991, 3991, 3991, 3991, 3945, 3945, 3945, 3945, 3945, 3945, 3900, 3900, 3900, 3856, 3856, 3856, 3856, 3856, 3813, 3856, 3856, 3813, 3813, 3813, 3813, 3813, 3856, 3856, 3856, 3813, 3813, 3813, 3856, 3856, 3856, 3856, 3900, 3900, 3900, 3900, 3900, 3900, 3945, 3945, 3945, 3945, 3945, 3945, 3991, 3991, 3991, 3991, 3991, 3991, 3991, 3991, 3991, 3991, 3991, 3991, 4038, 4038, 4038, 4038, 4038, 4038, 4038, 4038, 3991, 3991, 3991, 3991, 3991, 3991, 3991, 3991, 3991, 3991, 3991, 3991, 4038, 4038, 4038, 3991, 4038, 4038, 3991, 3991, 3991, 3991, 3991, 3991, 3991, 3991, 3945, 3945, 3945, 3945, 3945, 3945, 3945, 3900, 3900, 3900, 3900, 3900, 3900, 3900, 3856, 3856, 3856, 3856, 3856, 3856, 3856, 3856, 3856, 3813, 3813, 3813, 3813, 3813, 3813, 3813, 3771, 3771, 3771, 3771, 3771, 3771, 0, 0, 0, 0, 0, 0, 0, 0, 0, 0, 0, 0, 0, 0, 0, 0, 0, 0, 0, 0, 0, 0, 0, 0, 0, 0, 0, 0, 0, 0, 0, 0, 0, 0, 0, 0, 0, 0, 0, 0, 0, 0, 0, 0, 0, 0, 0, 0, 0, 0, 0, 0, 0, 0, 0, 0, 0, 0, 0, 0, 0, 0, 0, 0, 0, 0, 0, 0, 0, 0, 0, 0, 0, 0, 0, 0, 0, 0, 0, 0, 0, 0, 0, 0, 0, 0, 0, 0, 0, 0, 0, 0, 0, 0, 0, 0, 0, 0, 0, 0, 0, 3147, 3147, 3118, 3118, 3118, 3118, 3090, 3090, 3090, 3062, 3062, 3062, 3035, 3035, 3035, 3035, 3035, 3035, 3008, 3008, 3008, 3008, 3008, 2982, 2982, 2982, 2956, 2956, 2931, 2931, 2931, 2931, 2931, 2931, 2931, 2931, 2931, 2931, 2931, 2931, 2931, 2931, 2906, 2906, 2906, 2906, 2906, 2882, 2882, 2882, 2882, 2882, 2858, 2858, 2858, 2858, 2858, 2858, 2858, 2834, 2834, 2834, 2834, 2834, 2811, 2811, 2811, 2811, 2811, 2788, 2788, 2788, 2788, 2788, 2765, 2765, 2765, 2765, 2765, 2765, 2765, 2743, 2743, 2743, 2743, 2743, 2743, 2721, 2721, 2721, 2721, 2721, 2721, 2721, 2721, 2700, 2700, 2700, 2700, 2679, 2679, 2679, 2679, 2679, 2658, 2658, 2658, 2658, 2658, 2637, 2637, 2637, 2637, 2637, 2637, 2637, 2637, 2617, 2617, 2617, 2617, 2597, 2597, 2597, 2597, 2578, 2578, 2578, 2578, 2578, 2558, 2558, 2558, 2558, 2558, 2539, 2539, 2539, 2539, 2539, 2539, 2539, 2521, 2521, 2521, 2521, 2521, 2521, 2521, 2502, 2502, 2502, 2502, 2502, 2502, 2502, 2484, 2484, 2484, 2484, 2484, 2484, 2466, 2466, 2466, 2466, 2448, 2448, 2448, 2448, 2448, 2431, 2431, 2431, 2431, 2431, 2414, 2414, 2414, 2414, 2414, 2348, 2129, 2089, 2089, 0, 0, 0, 2102, 2102, 0, 0, 0, 0, 0, 0, 0, 0, 0, 0, 2102, 0, 0, 0, 0, 0, 0, 0, 0, 0, 0, 0, 0, 0, 0, 0, 0, 0, 0, 0, 0, 2004, 2004,
       4291, 4291, 4238, 4291, 4291, 4238, 4238, 4238, 4238, 4291, 4291, 4291, 4291, 4291, 4291, 4291, 4291, 4346, 4346, 4346, 4346, 4346, 4346, 4346, 4346, 4346, 4346, 4402, 4402, 4402, 4402, 4402, 4402, 4402, 4402, 4402, 4402, 4402, 4459, 4459, 4459, 4459, 4459, 4459, 4459, 4459, 4459, 4459, 4402, 4402, 4402, 4402, 4402, 4346, 4346, 4346, 4346, 4291, 4291, 4291, 4238, 4238, 4238, 4238, 4238, 4238, 4186, 4186, 0, 0, 0, 0, 0, 0, 0, 0, 0, 0, 0, 0, 3900, 3813, 0, 0, 3945, 3900, 3991, 4038, 3991, 3991, 3991, 3991, 3991, 3991, 3991, 3945, 3945, 3945, 3945, 3945, 3900, 3900, 3900, 3900, 3856, 3856, 3856, 3856, 3856, 3813, 3856, 3856, 3813, 3813, 3813, 3813, 3813, 3813, 3856, 3856, 3813, 3813, 3813, 3856, 3856, 3856, 3856, 3856, 3856, 3856, 3900, 3900, 3900, 3900, 3945, 3945, 3945, 3945, 3945, 3991, 3991, 3991, 3945, 3991, 3991, 3991, 3991, 3991, 3991, 3991, 3991, 4038, 4038, 4038, 4038, 4038, 4038, 4038, 4038, 3991, 3991, 3991, 3991, 3991, 3991, 3991, 3991, 3991, 3991, 3991, 4038, 4038, 4038, 4038, 4038, 4038, 4038, 4038, 4038, 3991, 3991, 3991, 3991, 3991, 3991, 3945, 3945, 3945, 3945, 3945, 3945, 3945, 3900, 3900, 3900, 3900, 3900, 3900, 3900, 3856, 3856, 3856, 3856, 3856, 3856, 3856, 3856, 3856, 3813, 3813, 3813, 3813, 3813, 3813, 3813, 3771, 3771, 3771, 3771, 3771, 3771, 0, 0, 0, 0, 0, 0, 0, 0, 0, 0, 0, 0, 0, 0, 0, 0, 0, 0, 0, 0, 0, 0, 0, 0, 0, 0, 0, 0, 0, 0, 0, 0, 0, 0, 0, 0, 0, 0, 0, 0, 0, 0, 0, 0, 0, 0, 0, 0, 0, 0, 0, 0, 0, 0, 0, 0, 0, 0, 0, 0, 0, 0, 0, 0, 0, 0, 0, 0, 0, 0, 0, 0, 0, 0, 0, 0, 0, 0, 0, 0, 0, 0, 0, 0, 0, 0, 0, 0, 0, 0, 0, 0, 0, 0, 0, 0, 0, 0, 0, 0, 0, 0, 0, 0, 3118, 3118, 3118, 3090, 3090, 3090, 3062, 3062, 3062, 3062, 3035, 3035, 3035, 3035, 3035, 3008, 3008, 3008, 3008, 3008, 2982, 2982, 2982, 2956, 2956, 2931, 2931, 2931, 2931, 2931, 2931, 2931, 2931, 2931, 2931, 2931, 2931, 2931, 2931, 2906, 2906, 2906, 2906, 2906, 2882, 2882, 2882, 2882, 2882, 2882, 2858, 2858, 2858, 2858, 2858, 2858, 2834, 2834, 2834, 2834, 2834, 2811, 2811, 2811, 2811, 2811, 2788, 2788, 2788, 2788, 2788, 2765, 2765, 2765, 2765, 2765, 2765, 2765, 2743, 2743, 2743, 2743, 2743, 2721, 2721, 2721, 2721, 2721, 2721, 2721, 2721, 2721, 2700, 2700, 2700, 2700, 2679, 2679, 2679, 2679, 2658, 2658, 2658, 2658, 2658, 2658, 2637, 2637, 2637, 2637, 2637, 2637, 2637, 2637, 2617, 2617, 2617, 2617, 2597, 2597, 2597, 2597, 2578, 2578, 2578, 2578, 2578, 2558, 2558, 2558, 2558, 2558, 2539, 2539, 2539, 2539, 2539, 2539, 2539, 2521, 2521, 2521, 2521, 2521, 2521, 2521, 2502, 2502, 2502, 2502, 2502, 2502, 2502, 2484, 2484, 2484, 2484, 2484, 2466, 2466, 2466, 2466, 2466, 2448, 2448, 2448, 2448, 2448, 2448, 2431, 2431, 2431, 2431, 2414, 2414, 2414, 2414, 2414, 2285, 2115, 2089, 2089, 0, 0, 0, 2102, 2102, 0, 0, 0, 0, 0, 0, 0, 0, 0, 0, 2052, 2052, 0, 0, 0, 0, 0, 0, 0, 0, 2028, 2028, 2028, 2028, 2028, 2028, 0, 0, 0, 2064, 2016, 2016, 2004,
       4291, 4291, 4238, 4238, 4238, 4238, 4238, 4238, 4238, 4238, 4291, 4291, 4291, 4291, 4291, 4291, 4291, 4346, 4346, 4346, 4346, 4346, 4346, 4346, 4346, 4346, 4346, 4402, 4402, 4402, 4402, 4402, 4402, 4402, 4402, 4402, 4459, 4459, 4459, 4459, 4459, 4459, 4459, 4459, 4459, 4459, 4459, 4459, 4402, 4402, 4402, 4402, 4402, 4346, 4346, 4346, 4346, 4291, 4291, 4291, 4238, 4238, 4238, 4238, 4238, 4238, 4186, 0, 0, 0, 0, 0, 0, 0, 0, 0, 0, 0, 0, 0, 0, 0, 0, 0, 3771, 3900, 3991, 4038, 3991, 3991, 3991, 3991, 3991, 3991, 3991, 3945, 3945, 3945, 3945, 3900, 3900, 3900, 3900, 3900, 3856, 3856, 3856, 3856, 3856, 3813, 3856, 3856, 3813, 3813, 3813, 3813, 3813, 3813, 3856, 3856, 3813, 3813, 3813, 3813, 3856, 3856, 3856, 3856, 3856, 3856, 3856, 3900, 3900, 3900, 3945, 3945, 3945, 3945, 3945, 3945, 3991, 3991, 3991, 3991, 3991, 3991, 3991, 3991, 3991, 3991, 3991, 4038, 4038, 4038, 4038, 4038, 4038, 4038, 4038, 3991, 3991, 3991, 3991, 3991, 3991, 3991, 3991, 3991, 3991, 4038, 4038, 4038, 4038, 4038, 4038, 4038, 4038, 4038, 4038, 3991, 3991, 3991, 3991, 3991, 3991, 3991, 3991, 3945, 3945, 3945, 3945, 3945, 3945, 3900, 3945, 3945, 3900, 3900, 3900, 3856, 3856, 3856, 3856, 3856, 3856, 3856, 3856, 3813, 3813, 3813, 3813, 3813, 3813, 3813, 3813, 3771, 3771, 3771, 3771, 3771, 3771, 0, 0, 0, 0, 0, 0, 0, 0, 0, 0, 0, 0, 0, 0, 0, 0, 0, 0, 0, 0, 0, 0, 0, 0, 0, 0, 0, 0, 0, 0, 0, 0, 0, 0, 0, 0, 0, 0, 0, 0, 0, 0, 0, 0, 0, 0, 0, 0, 0, 0, 0, 0, 0, 0, 0, 0, 0, 0, 0, 0, 0, 0, 0, 0, 0, 0, 0, 0, 0, 0, 0, 0, 0, 0, 0, 0, 0, 0, 0, 0, 0, 0, 0, 0, 0, 0, 0, 0, 0, 0, 0, 0, 0, 0, 0, 0, 0, 0, 0, 0, 0, 0, 0, 0, 3118, 3118, 3118, 3090, 3090, 3090, 3090, 3062, 3062, 3062, 3035, 3035, 3035, 3035, 3035, 3008, 3008, 3008, 3008, 3008, 2982, 2982, 2956, 2956, 2956, 2931, 2931, 2931, 2931, 2931, 2931, 2931, 2931, 2931, 2931, 2931, 2931, 2931, 2931, 2906, 2906, 2906, 2906, 2906, 2906, 2882, 2882, 2882, 2882, 2882, 2858, 2858, 2858, 2858, 2858, 2834, 2834, 2834, 2834, 2834, 2834, 2811, 2811, 2811, 2811, 2811, 2788, 2788, 2788, 2788, 2788, 2765, 2765, 2765, 2765, 2765, 2765, 2765, 2743, 2743, 2743, 2743, 2721, 2721, 2721, 2721, 2721, 2721, 2721, 2721, 2721, 2721, 2700, 2700, 2700, 2700, 2679, 2679, 2679, 2679, 2679, 2658, 2658, 2658, 2658, 2658, 2637, 2637, 2637, 2637, 2637, 2617, 2617, 2617, 2617, 2617, 2617, 2617, 2597, 2597, 2597, 2578, 2578, 2578, 2578, 2578, 2578, 2558, 2558, 2558, 2558, 2558, 2539, 2539, 2539, 2539, 2539, 2539, 2539, 2521, 2521, 2521, 2521, 2521, 2521, 2521, 2502, 2502, 2502, 2502, 2502, 2502, 2502, 2484, 2484, 2484, 2484, 2484, 2466, 2466, 2466, 2466, 2448, 2448, 2448, 2448, 2448, 2448, 2431, 2431, 2431, 2431, 2431, 2414, 2414, 2414, 2414, 2414, 2364, 2129, 2089, 2077, 0, 0, 0, 2102, 2089, 2089, 0, 0, 0, 0, 0, 0, 2064, 2052, 2052, 2052, 2052, 0, 0, 0, 0, 0, 0, 0, 0, 0, 2028, 2028, 2028, 2028, 2028, 2028, 2028, 2028, 2016, 2016, 2016, 2004,
       4291, 4291, 4238, 4238, 4238, 4238, 4238, 4238, 4238, 4238, 4291, 4291, 4291, 4291, 4291, 4291, 4291, 4346, 4346, 4346, 4346, 4346, 4346, 4346, 4346, 4346, 4346, 4346, 4402, 4402, 4402, 4402, 4402, 4402, 4402, 4402, 4459, 4459, 4459, 4459, 4459, 4459, 4459, 4459, 4459, 4459, 4459, 4402, 4402, 4402, 4402, 4402, 4346, 4346, 4346, 4346, 4291, 4291, 4291, 4238, 4238, 4238, 4238, 4238, 4238, 4186, 4186, 0, 0, 0, 0, 0, 0, 0, 0, 0, 0, 0, 0, 0, 0, 0, 0, 0, 0, 3945, 4038, 4038, 3991, 3991, 3991, 3991, 3991, 3991, 3991, 3945, 3945, 3900, 3900, 3900, 3900, 3900, 3900, 3856, 3856, 3856, 3856, 3856, 3856, 3856, 3856, 3856, 3856, 3856, 3856, 3813, 3813, 3813, 3856, 3856, 3856, 3813, 3813, 3856, 3856, 3856, 3856, 3856, 3856, 3856, 3856, 3900, 3900, 3900, 3945, 3945, 3945, 3945, 3945, 3945, 3991, 3991, 3991, 3991, 3991, 3991, 3991, 3991, 3991, 3991, 3991, 3991, 4038, 4038, 4038, 4038, 4038, 3991, 3991, 3991, 3991, 3991, 3991, 3991, 3991, 3991, 3991, 3991, 3991, 4038, 4038, 4038, 4038, 4038, 4038, 4038, 4038, 4038, 4038, 3991, 3991, 3991, 3991, 3991, 3991, 3991, 3991, 3945, 3945, 3945, 3945, 3945, 3945, 3900, 3945, 3945, 3900, 3900, 3900, 3856, 3856, 3856, 3856, 3856, 3856, 3813, 3813, 3813, 3813, 3813, 3813, 3813, 3813, 3813, 3813, 3771, 3771, 3771, 3771, 3771, 3771, 3730, 0, 0, 0, 0, 0, 0, 0, 0, 0, 0, 0, 0, 0, 0, 0, 0, 0, 0, 0, 0, 0, 0, 0, 0, 0, 0, 0, 0, 0, 0, 0, 0, 0, 0, 0, 0, 0, 0, 0, 0, 0, 0, 0, 0, 0, 0, 0, 0, 0, 0, 0, 0, 0, 0, 0, 0, 0, 0, 0, 0, 0, 0, 0, 0, 0, 0, 0, 0, 0, 0, 0, 0, 0, 0, 0, 0, 0, 0, 0, 0, 0, 0, 0, 0, 0, 0, 0, 0, 0, 0, 0, 0, 0, 0, 0, 0, 0, 0, 0, 0, 0, 0, 0, 0, 3118, 3090, 3090, 3090, 3090, 3090, 3062, 3062, 3062, 3035, 3035, 3035, 3035, 3035, 3035, 3035, 3008, 3008, 3008, 3008, 2982, 2956, 2956, 2956, 2931, 2931, 2931, 2956, 2956, 2931, 2931, 2931, 2956, 2956, 2931, 2931, 2931, 2931, 2906, 2906, 2906, 2906, 2906, 2906, 2882, 2882, 2882, 2858, 2858, 2858, 2858, 2858, 2858, 2858, 2834, 2834, 2834, 2834, 2834, 2834, 2811, 2811, 2811, 2811, 2788, 2788, 2788, 2788, 2788, 2788, 2788, 2788, 2765, 2765, 2765, 2765, 2765, 2743, 2743, 2743, 2743, 2721, 2721, 2721, 2721, 2721, 2721, 2721, 2721, 2721, 2700, 2700, 2700, 2700, 2700, 2679, 2679, 2679, 2679, 2679, 2658, 2658, 2658, 2658, 2658, 2637, 2637, 2637, 2637, 2637, 2617, 2617, 2617, 2617, 2617, 2617, 2597, 2597, 2597, 2597, 2578, 2578, 2578, 2578, 2578, 2578, 2558, 2558, 2558, 2558, 2558, 2539, 2539, 2539, 2539, 2539, 2539, 2539, 2539, 2521, 2521, 2521, 2521, 2521, 2521, 2502, 2502, 2502, 2502, 2502, 2502, 2502, 2484, 2484, 2484, 2484, 2484, 2466, 2466, 2466, 2466, 2448, 2448, 2448, 2448, 2448, 2448, 2431, 2431, 2431, 2431, 2414, 2414, 2414, 2414, 2414, 2414, 2414, 2142, 2077, 0, 0, 0, 0, 2089, 2089, 2077, 2077, 0, 0, 0, 0, 2077, 2064, 2052, 2052, 2052, 2052, 2064, 2064, 2052, 0, 0, 0, 0, 0, 0, 2040, 2028, 2028, 2028, 2028, 2028, 2028, 2028, 2016, 2016, 2016, 2004,
       4291, 4291, 4238, 4238, 4238, 4238, 4238, 4238, 4238, 4238, 4291, 4291, 4291, 4291, 4291, 4346, 4346, 4346, 4346, 4346, 4346, 4346, 4346, 4346, 4346, 4346, 4346, 4346, 4346, 4402, 4402, 4402, 4402, 4402, 4402, 4402, 4459, 4459, 4402, 4459, 4459, 4459, 4459, 4459, 4459, 4459, 4459, 4402, 4402, 4402, 4402, 4402, 4346, 4346, 4346, 4346, 4346, 4291, 4291, 4238, 4238, 4238, 4238, 4238, 4238, 4186, 4186, 4186, 4186, 0, 0, 0, 0, 0, 0, 0, 0, 0, 0, 0, 0, 0, 0, 0, 0, 3945, 4038, 4038, 4038, 3991, 3991, 4038, 3991, 3991, 3991, 3945, 3945, 3900, 3900, 3900, 3900, 3900, 3900, 3856, 3856, 3856, 3856, 3856, 3856, 3856, 3856, 3856, 3856, 3856, 3856, 3813, 3856, 3856, 3856, 3856, 3856, 3856, 3856, 3856, 3856, 3856, 3856, 3856, 3856, 3856, 3856, 3900, 3900, 3900, 3945, 3945, 3945, 3945, 3991, 3991, 3991, 3991, 3991, 3991, 3991, 3991, 3991, 3991, 3991, 3991, 3991, 3991, 4038, 4038, 4038, 4038, 4038, 3991, 3991, 3991, 3991, 3991, 3991, 3991, 3991, 3991, 3991, 3991, 3991, 3991, 3991, 3991, 3991, 3991, 3991, 3991, 3991, 3991, 3991, 3991, 3991, 3991, 3991, 3991, 3991, 3945, 3945, 3945, 3945, 3945, 3945, 3945, 3945, 3900, 3900, 3945, 3900, 3900, 3900, 3856, 3856, 3856, 3813, 3813, 3813, 3813, 3813, 3813, 3813, 3813, 3813, 3813, 3813, 3813, 3813, 3771, 3771, 3771, 3771, 3771, 3771, 3771, 0, 0, 0, 0, 0, 0, 0, 0, 0, 0, 0, 0, 0, 0, 0, 0, 0, 0, 0, 0, 0, 0, 0, 0, 0, 0, 0, 0, 0, 0, 0, 0, 0, 0, 0, 0, 0, 0, 0, 0, 0, 0, 0, 0, 0, 0, 0, 0, 0, 0, 0, 0, 0, 0, 0, 0, 0, 0, 0, 0, 0, 0, 0, 0, 0, 0, 0, 0, 0, 0, 0, 0, 0, 0, 0, 0, 0, 0, 0, 0, 0, 0, 0, 0, 0, 0, 0, 0, 0, 0, 0, 0, 0, 0, 0, 0, 0, 0, 0, 0, 0, 0, 0, 0, 3118, 3090, 3090, 3090, 3090, 3062, 3062, 3062, 3062, 3035, 3035, 3035, 3035, 3035, 3035, 3035, 3008, 3008, 3008, 3008, 2982, 2982, 2956, 2956, 2956, 2931, 2931, 2956, 2956, 2931, 2931, 2931, 2956, 2931, 2931, 2931, 2931, 2931, 2906, 2906, 2906, 2906, 2906, 2906, 2882, 2882, 2882, 2858, 2858, 2858, 2858, 2858, 2858, 2858, 2834, 2834, 2834, 2834, 2834, 2834, 2811, 2811, 2811, 2788, 2788, 2788, 2788, 2788, 2788, 2788, 2788, 2788, 2765, 2765, 2765, 2765, 2765, 2743, 2743, 2743, 2743, 2721, 2721, 2721, 2721, 2721, 2721, 2721, 2721, 2700, 2700, 2700, 2700, 2700, 2700, 2679, 2679, 2679, 2679, 2679, 2658, 2658, 2658, 2658, 2658, 2637, 2637, 2637, 2637, 2637, 2617, 2617, 2617, 2617, 2617, 2617, 2597, 2597, 2597, 2597, 2597, 2578, 2578, 2578, 2578, 2578, 2578, 2578, 2558, 2558, 2558, 2558, 2558, 2539, 2539, 2539, 2539, 2539, 2539, 2521, 2521, 2521, 2521, 2521, 2521, 2502, 2502, 2502, 2502, 2502, 2502, 2502, 2484, 2484, 2484, 2484, 2484, 2466, 2466, 2466, 2466, 2448, 2448, 2448, 2448, 2448, 2448, 2431, 2431, 2431, 2431, 2414, 2414, 2414, 2414, 2414, 2414, 2414, 2142, 2077, 0, 0, 0, 0, 2089, 2089, 2077, 2077, 2064, 2064, 2064, 2064, 2077, 2064, 2052, 2052, 2052, 2052, 2064, 2052, 2052, 2040, 2040, 2040, 2040, 2040, 2040, 2028, 2028, 2028, 2028, 2028, 2028, 2016, 2016, 2016, 2016, 2004, 2004,
       4291, 4291, 4238, 4238, 4238, 4238, 4238, 4238, 4291, 4291, 4291, 4291, 4291, 4346, 4346, 4346, 4346, 4346, 4346, 4346, 4346, 4346, 4346, 4346, 4346, 4346, 4346, 4346, 4402, 4402, 4402, 4402, 4402, 4402, 4402, 4402, 4402, 4402, 4402, 4402, 4402, 4459, 4459, 4459, 4459, 4459, 4402, 4402, 4402, 4402, 4402, 4402, 4346, 4346, 4346, 4346, 4346, 4291, 4291, 4238, 4238, 4238, 4238, 4238, 4238, 4238, 4186, 4186, 4136, 0, 0, 0, 0, 0, 0, 0, 0, 0, 0, 0, 0, 0, 0, 0, 0, 3991, 4038, 4038, 4038, 3991, 3991, 4038, 4038, 3991, 3991, 3945, 3945, 3945, 3900, 3900, 3900, 3900, 3900, 3856, 3856, 3856, 3856, 3856, 3856, 3856, 3856, 3856, 3856, 3856, 3856, 3856, 3856, 3856, 3856, 3856, 3856, 3856, 3856, 3856, 3856, 3856, 3856, 3856, 3856, 3856, 3856, 3900, 3900, 3900, 3900, 3945, 3945, 3945, 3991, 3991, 3991, 3991, 3991, 3991, 3991, 3991, 3991, 3991, 3991, 3991, 3991, 4038, 4038, 4038, 4038, 4038, 4038, 3991, 3991, 3991, 3991, 3991, 3991, 3991, 3991, 3991, 3991, 3991, 3991, 3991, 3991, 3991, 3991, 3991, 3991, 3991, 3991, 3991, 3991, 3991, 3991, 3991, 3991, 3991, 3991, 3991, 3991, 3945, 3945, 3945, 3945, 3945, 3945, 3900, 3900, 3900, 3900, 3900, 3856, 3856, 3856, 3813, 3813, 3813, 3813, 3813, 3813, 3813, 3771, 3771, 3771, 3813, 3813, 3771, 3771, 3771, 3771, 3771, 3771, 3771, 3771, 3730, 0, 0, 0, 0, 0, 0, 0, 0, 0, 0, 0, 0, 0, 0, 0, 0, 0, 0, 0, 0, 0, 0, 0, 0, 0, 0, 0, 0, 0, 0, 0, 0, 0, 0, 0, 0, 0, 0, 0, 0, 0, 0, 0, 0, 0, 0, 0, 0, 0, 0, 0, 0, 0, 0, 0, 0, 0, 0, 0, 0, 0, 0, 0, 0, 0, 0, 0, 0, 0, 0, 0, 0, 0, 0, 0, 0, 0, 0, 0, 0, 0, 0, 0, 0, 0, 0, 0, 0, 0, 0, 0, 0, 0, 0, 0, 0, 0, 0, 0, 0, 0, 0, 0, 0, 0, 0, 3090, 3062, 3062, 3062, 3062, 3062, 3035, 3035, 3035, 3035, 3035, 3035, 3035, 3035, 3008, 3008, 3008, 3008, 2982, 2982, 2956, 2956, 2931, 2931, 2931, 2931, 2931, 2931, 2931, 2931, 2931, 2931, 2931, 2931, 2931, 2931, 2906, 2906, 2906, 2906, 2906, 2906, 2906, 2882, 2882, 2858, 2858, 2858, 2858, 2858, 2834, 2834, 2834, 2834, 2834, 2834, 2834, 2834, 2834, 2811, 2811, 2788, 2788, 2788, 2788, 2788, 2788, 2788, 2788, 2788, 2765, 2765, 2765, 2743, 2743, 2743, 2743, 2743, 2721, 2721, 2721, 2721, 2721, 2721, 2721, 2721, 2700, 2700, 2700, 2700, 2700, 2700, 2679, 2679, 2679, 2679, 2679, 2679, 2658, 2658, 2658, 2658, 2658, 2637, 2637, 2637, 2637, 2617, 2617, 2617, 2617, 2617, 2617, 2597, 2597, 2597, 2597, 2597, 2597, 2578, 2578, 2578, 2578, 2578, 2578, 2578, 2578, 2558, 2558, 2558, 2558, 2539, 2539, 2539, 2539, 2539, 2539, 2521, 2521, 2521, 2521, 2521, 2521, 2502, 2502, 2502, 2502, 2502, 2502, 2502, 2484, 2484, 2484, 2484, 2484, 2466, 2466, 2466, 2466, 2448, 2448, 2448, 2448, 2448, 2448, 2448, 2431, 2431, 2431, 2414, 2414, 2414, 2414, 2414, 2414, 2397, 2155, 2077, 2077, 2077, 2077, 2089, 2089, 2077, 2077, 2077, 2064, 2064, 2064, 2064, 2064, 2052, 2052, 2052, 2052, 2052, 2052, 2052, 2052, 2040, 2040, 2040, 2040, 2040, 2040, 2028, 2028, 2028, 2028, 2028, 2028, 2016, 2016, 2016, 2016, 2004, 2004,
       4291, 4291, 4238, 4238, 4238, 4238, 4238, 4291, 4291, 4291, 4291, 4291, 4346, 4346, 4346, 4346, 4346, 4346, 4346, 4346, 4346, 4346, 4346, 4346, 4346, 4346, 4346, 4346, 4402, 4402, 4402, 4402, 4402, 4402, 4402, 4402, 4402, 4402, 4402, 4459, 4459, 4459, 4459, 4459, 4459, 4459, 4402, 4402, 4402, 4402, 4402, 4346, 4346, 4346, 4346, 4346, 4346, 4291, 4291, 4238, 4238, 4238, 4238, 4238, 4238, 4238, 4186, 4186, 4186, 4136, 4136, 0, 0, 0, 0, 4086, 0, 0, 0, 4038, 4086, 4038, 3730, 3813, 3991, 4038, 4038, 4038, 4038, 4038, 4038, 4038, 4038, 4038, 3991, 3945, 3945, 3945, 3900, 3900, 3900, 3900, 3900, 3856, 3856, 3856, 3856, 3856, 3856, 3856, 3856, 3856, 3856, 3856, 3856, 3856, 3856, 3856, 3856, 3856, 3856, 3856, 3856, 3856, 3856, 3856, 3856, 3856, 3856, 3856, 3856, 3900, 3900, 3900, 3900, 3900, 3945, 3945, 3945, 3945, 3991, 3991, 3991, 3991, 3991, 3991, 3991, 3991, 3991, 3991, 3991, 4038, 4038, 4038, 4038, 4038, 4038, 4038, 4038, 4038, 4038, 4038, 3991, 3991, 3991, 3991, 3991, 3991, 3991, 3991, 3991, 3991, 3991, 3991, 3991, 3991, 3991, 3991, 3991, 3991, 3991, 3991, 3991, 3991, 3991, 3991, 3991, 3991, 3945, 3945, 3945, 3945, 3900, 3900, 3900, 3900, 3900, 3856, 3856, 3856, 3856, 3813, 3813, 0, 0, 3771, 3771, 3771, 3771, 3771, 3771, 3771, 3771, 3771, 3771, 3771, 3771, 3771, 3771, 3771, 3771, 0, 0, 0, 0, 0, 0, 0, 0, 0, 0, 0, 0, 0, 0, 0, 0, 0, 0, 0, 0, 0, 0, 0, 0, 0, 0, 0, 0, 0, 0, 0, 0, 0, 0, 0, 0, 0, 0, 0, 0, 0, 0, 0, 0, 0, 0, 0, 0, 0, 0, 0, 0, 0, 0, 0, 0, 0, 0, 0, 0, 0, 0, 0, 0, 0, 0, 0, 0, 0, 0, 0, 0, 0, 0, 0, 0, 0, 0, 0, 0, 0, 0, 0, 0, 0, 0, 0, 0, 0, 0, 0, 0, 0, 0, 0, 0, 0, 0, 0, 0, 0, 0, 0, 0, 0, 0, 0, 3090, 3090, 3090, 3062, 3062, 3062, 3062, 3035, 3035, 3035, 3035, 3035, 3035, 3008, 3008, 3008, 3008, 3008, 2982, 2982, 2956, 2956, 2931, 2931, 2931, 2931, 2931, 2931, 2906, 2906, 2931, 2931, 2931, 2931, 2931, 2931, 2906, 2906, 2906, 2906, 2931, 2906, 2906, 2882, 2858, 2858, 2858, 2834, 2834, 2834, 2834, 2834, 2834, 2834, 2834, 2834, 2834, 2834, 2834, 2811, 2811, 2811, 2788, 2788, 2788, 2788, 2788, 2811, 2906, 0, 0, 0, 0, 2743, 2743, 2743, 2743, 2721, 2721, 2721, 2721, 2721, 2721, 2721, 2721, 2700, 2700, 2700, 2700, 2700, 2700, 2700, 2679, 2679, 2679, 2679, 2679, 2679, 2658, 2658, 2658, 2658, 2658, 2637, 2637, 2637, 2637, 2617, 2617, 2617, 2617, 2617, 2597, 2597, 2597, 2597, 2597, 2597, 2578, 2578, 2578, 2578, 2578, 2578, 2578, 2578, 2558, 2558, 2558, 2558, 2558, 2558, 2539, 2539, 2539, 2539, 2539, 2521, 2521, 2521, 2521, 2521, 2502, 2502, 2502, 2502, 2502, 2502, 2502, 2484, 2484, 2484, 2484, 2484, 2484, 2466, 2466, 2466, 2466, 2466, 2466, 2448, 2448, 2448, 2448, 2431, 2431, 2431, 2431, 2414, 2414, 2414, 2414, 2414, 2414, 2397, 0, 2129, 0, 0, 0, 0, 2089, 2077, 2077, 2077, 2064, 2064, 2064, 2064, 2064, 2052, 2052, 2052, 2052, 2040, 2040, 2040, 2040, 2040, 2040, 2040, 2028, 2028, 2028, 2028, 2028, 2028, 2028, 2028, 2028, 2016, 2016, 2016, 2016, 2004, 2004,
       4291, 4291, 4238, 4238, 4238, 4238, 4291, 4291, 4291, 4291, 4291, 4346, 4346, 4346, 4346, 4346, 4346, 4346, 4346, 4346, 4346, 4346, 4346, 4346, 4346, 4346, 4402, 4402, 4402, 4402, 4402, 4402, 4402, 4402, 4402, 4402, 4402, 4402, 4402, 4459, 4459, 4459, 4459, 4459, 4459, 4459, 4459, 4402, 4402, 4402, 4402, 4346, 4346, 4346, 4291, 4291, 4291, 4291, 4291, 4291, 4291, 4238, 4238, 4238, 4238, 4238, 4186, 4186, 4186, 4136, 4136, 4136, 4136, 4136, 4136, 4136, 4136, 4136, 4136, 4136, 4086, 4086, 4038, 4038, 4038, 4038, 4038, 4038, 4038, 4038, 4038, 4038, 4038, 4038, 3991, 3991, 3945, 3945, 3900, 3900, 3856, 3856, 3856, 3856, 3856, 3856, 3856, 3856, 3856, 3856, 3856, 3856, 3856, 3856, 3856, 3856, 3856, 3856, 3856, 3856, 3856, 3856, 3856, 3856, 3856, 3856, 3856, 3856, 3856, 3856, 3856, 3900, 3900, 3900, 3900, 3900, 3945, 3945, 3945, 3945, 3991, 3991, 3991, 3991, 3991, 3991, 3991, 3991, 3991, 3991, 3991, 3991, 4038, 4038, 4038, 4038, 4038, 4038, 4038, 4038, 4038, 4038, 4038, 4038, 3991, 3991, 3991, 3991, 3991, 3991, 3991, 3991, 3991, 3991, 3991, 3991, 3991, 3991, 3991, 3991, 3991, 3991, 3991, 3991, 3991, 3991, 3991, 3991, 3945, 3945, 3945, 3945, 3900, 3900, 3900, 3900, 3856, 3856, 3856, 3856, 3813, 3813, 0, 0, 0, 0, 0, 0, 0, 3730, 3771, 3771, 3771, 3771, 3771, 3771, 3771, 3771, 3771, 3771, 3771, 0, 0, 0, 0, 0, 0, 0, 0, 0, 0, 0, 0, 0, 0, 0, 0, 0, 0, 0, 0, 0, 0, 0, 0, 0, 0, 0, 0, 0, 0, 0, 0, 0, 0, 0, 0, 0, 0, 0, 0, 0, 0, 0, 0, 0, 0, 0, 0, 0, 0, 0, 0, 0, 0, 0, 0, 0, 0, 0, 0, 0, 0, 0, 0, 0, 0, 0, 0, 0, 0, 0, 0, 0, 0, 0, 0, 0, 0, 0, 0, 0, 0, 0, 0, 0, 0, 0, 0, 0, 0, 0, 0, 0, 0, 0, 0, 0, 0, 0, 0, 0, 0, 0, 0, 0, 0, 0, 3090, 3090, 3090, 3090, 3090, 3062, 3062, 3062, 3035, 3035, 3035, 3035, 3035, 3008, 3008, 3008, 3008, 3008, 2982, 2982, 2956, 2956, 2956, 2931, 2931, 2931, 2931, 2931, 2906, 2906, 2931, 2931, 2931, 2931, 2931, 2931, 2906, 2906, 2906, 2906, 2931, 2906, 2906, 0, 0, 0, 0, 0, 2858, 2834, 2834, 2834, 2834, 2834, 2858, 2834, 2834, 2834, 2811, 2811, 2811, 0, 0, 0, 0, 0, 0, 0, 0, 0, 0, 0, 0, 0, 0, 2743, 2743, 2721, 2721, 2721, 2721, 2721, 2721, 2721, 2721, 2700, 2700, 2700, 2700, 2700, 2700, 2700, 2679, 2679, 2679, 2679, 2679, 2679, 2658, 2658, 2658, 2658, 2658, 2637, 2637, 2637, 2637, 2637, 2617, 2617, 2617, 2597, 2597, 2597, 2597, 2597, 2597, 2597, 2578, 2578, 2578, 2578, 2578, 2578, 2578, 2578, 2578, 2558, 2558, 2558, 2558, 2558, 2539, 2539, 2539, 2539, 2539, 2521, 2521, 2521, 2521, 2502, 2502, 2502, 2502, 2502, 2502, 2502, 2502, 2484, 2484, 2484, 2484, 2484, 2484, 2466, 2466, 2466, 2466, 2466, 2466, 2448, 2448, 2448, 2448, 2448, 2431, 2431, 2431, 2431, 2414, 2414, 2414, 2414, 2414, 2397, 2348, 2285, 0, 0, 0, 0, 2089, 2077, 2077, 2077, 2064, 2064, 2064, 2064, 2064, 2052, 2052, 2040, 2040, 2040, 2028, 2028, 2028, 2028, 2028, 2028, 2028, 2028, 0, 0, 0, 0, 0, 0, 0, 2016, 2016, 2016, 2016, 2004, 2004,
       4291, 4238, 4238, 4238, 4238, 4238, 4291, 4291, 4291, 4291, 4291, 4346, 4346, 4346, 4346, 4346, 4346, 4346, 4346, 4346, 4346, 4346, 4346, 4346, 4346, 4346, 4402, 4402, 4402, 4402, 4402, 4402, 4402, 4402, 4402, 4402, 4402, 4402, 4402, 4459, 4459, 4459, 4459, 4459, 4459, 4459, 4459, 4459, 4402, 4402, 4402, 4346, 4346, 4346, 4291, 4291, 4291, 4291, 4291, 4291, 4291, 4291, 4238, 4238, 4238, 4238, 4186, 4186, 4186, 4136, 4136, 4136, 4136, 4136, 4136, 4086, 4086, 4086, 4136, 4136, 4086, 4086, 4086, 4038, 4038, 4038, 4038, 4038, 4038, 4038, 4038, 4038, 4038, 4038, 3991, 3991, 3945, 3945, 3900, 3900, 3991, 3945, 3856, 3856, 3856, 3856, 3856, 3856, 3856, 3813, 3856, 3856, 3856, 3856, 3856, 3856, 3813, 3856, 3856, 3856, 3856, 3856, 3856, 3856, 3856, 3856, 3856, 3856, 3856, 3900, 3900, 3900, 3900, 3900, 3900, 3900, 3945, 3945, 3945, 3945, 3945, 3991, 3991, 3991, 3991, 3991, 3991, 3991, 3991, 3991, 3991, 3991, 3991, 4038, 4038, 4038, 4038, 4038, 4038, 4038, 4038, 4038, 4038, 4038, 3991, 3991, 3991, 3991, 3991, 3991, 3991, 3991, 3991, 3991, 3991, 3991, 3991, 3991, 3991, 3991, 3991, 3991, 3991, 3991, 3991, 3991, 3991, 3991, 3945, 3945, 3945, 3900, 3900, 3900, 3900, 3856, 3856, 3856, 3856, 3856, 3813, 3771, 0, 0, 0, 0, 0, 0, 0, 3730, 3730, 3771, 3771, 3771, 3771, 3771, 3771, 3771, 3771, 3771, 3771, 0, 0, 0, 0, 0, 0, 0, 0, 0, 0, 0, 0, 0, 0, 0, 0, 0, 0, 0, 0, 0, 0, 0, 0, 0, 0, 0, 0, 0, 0, 0, 0, 0, 0, 0, 0, 0, 0, 0, 0, 0, 0, 0, 0, 0, 0, 0, 0, 0, 0, 0, 0, 0, 0, 0, 0, 0, 0, 0, 0, 0, 0, 0, 0, 0, 0, 0, 0, 0, 0, 0, 0, 0, 0, 0, 0, 0, 0, 0, 0, 0, 0, 0, 0, 0, 0, 0, 0, 0, 0, 0, 0, 0, 0, 0, 0, 0, 0, 0, 0, 0, 0, 0, 0, 0, 0, 0, 0, 0, 0, 3090, 3090, 3062, 3062, 3062, 3035, 3035, 3035, 3035, 3008, 3008, 3008, 3008, 3008, 3008, 3008, 2982, 2982, 2956, 2956, 2931, 2931, 2931, 2931, 2931, 2906, 2906, 2931, 2931, 2931, 2931, 2931, 2931, 2931, 2906, 0, 0, 2956, 2931, 0, 0, 0, 0, 0, 0, 0, 0, 0, 0, 0, 0, 0, 2858, 2834, 2834, 0, 0, 0, 0, 0, 0, 0, 0, 0, 0, 0, 0, 0, 0, 0, 0, 0, 0, 2743, 2721, 2721, 2721, 2721, 2721, 2721, 2721, 2721, 2700, 2700, 2700, 2700, 2700, 2700, 2679, 2679, 2679, 2679, 2679, 2679, 2679, 2679, 2658, 2658, 2658, 2658, 2637, 2637, 2637, 2637, 2617, 2617, 2617, 2597, 2597, 2597, 2597, 2597, 2597, 2597, 2597, 2597, 2578, 2578, 2578, 2578, 2578, 2578, 2578, 2558, 2558, 2558, 2558, 2558, 2558, 2539, 2539, 2539, 2539, 2539, 2521, 2521, 2521, 2502, 2502, 2502, 2502, 2502, 2502, 2502, 2502, 2502, 2484, 2484, 2484, 2484, 2484, 2484, 2466, 2466, 2466, 2466, 2466, 2448, 2448, 2448, 2448, 2448, 2431, 2431, 2431, 2431, 2414, 2414, 2414, 2414, 2414, 2414, 2414, 2397, 2414, 0, 0, 0, 0, 0, 2102, 2102, 2115, 2102, 2089, 2102, 2064, 2052, 2040, 2040, 2040, 2040, 2040, 2028, 2028, 2040, 2028, 2028, 2028, 2052, 2102, 0, 0, 0, 0, 0, 0, 0, 2016, 2016, 2016, 2016, 2004, 1992,
       4291, 4291, 4238, 4238, 4238, 4238, 4291, 4291, 4291, 4291, 4346, 4346, 4346, 4346, 4346, 4346, 4346, 4346, 4346, 4346, 4346, 4346, 4346, 4346, 4346, 4346, 4402, 4402, 4402, 4402, 4402, 4402, 4402, 4402, 4402, 4402, 4402, 4402, 4402, 4459, 4459, 4459, 4459, 4459, 4459, 4459, 4459, 4459, 4402, 4402, 4402, 4346, 4346, 4346, 4346, 4291, 4291, 4291, 4291, 4291, 4291, 4238, 4238, 4238, 4238, 4238, 4238, 4186, 4186, 4136, 4136, 4136, 4136, 4136, 4136, 4086, 4086, 4086, 4136, 4136, 4136, 4086, 4086, 4038, 4038, 4038, 4038, 4038, 4038, 4038, 4038, 4038, 4038, 4038, 3991, 3991, 3945, 3945, 3900, 3900, 3945, 3900, 3856, 3813, 3813, 3813, 3813, 3813, 3813, 3813, 3856, 3856, 3856, 3856, 3856, 3856, 3856, 3856, 3856, 3856, 3856, 3856, 3856, 3856, 3856, 3856, 3856, 3856, 3856, 3900, 3900, 3900, 3900, 3900, 3900, 3900, 3945, 3945, 3945, 3945, 3991, 3991, 3991, 3991, 3991, 3991, 3991, 3991, 3991, 3991, 3991, 3991, 3991, 4038, 4038, 4038, 4038, 4038, 4038, 4038, 4038, 4038, 4038, 4038, 3991, 3991, 3991, 3991, 3991, 3991, 3991, 3991, 3991, 3991, 3991, 3991, 3991, 3991, 3991, 3991, 3991, 3991, 3991, 3991, 3991, 3991, 3991, 3945, 3945, 3945, 3945, 3900, 3900, 3900, 3856, 3856, 3856, 3856, 3856, 0, 0, 0, 0, 0, 0, 0, 0, 0, 0, 3690, 3730, 3730, 3730, 3730, 3771, 3771, 3771, 3771, 3730, 3730, 0, 0, 0, 0, 0, 0, 0, 0, 0, 0, 0, 0, 0, 0, 0, 0, 0, 0, 0, 0, 0, 0, 0, 0, 0, 0, 0, 0, 0, 0, 0, 0, 0, 0, 0, 0, 0, 0, 0, 0, 0, 0, 0, 0, 0, 0, 0, 0, 0, 0, 0, 0, 0, 0, 0, 0, 0, 0, 0, 0, 0, 0, 0, 0, 0, 0, 0, 0, 0, 0, 0, 0, 0, 0, 0, 0, 0, 0, 0, 0, 0, 0, 0, 0, 0, 0, 0, 0, 0, 0, 0, 0, 0, 0, 0, 0, 0, 0, 0, 0, 0, 0, 0, 0, 0, 0, 0, 0, 0, 0, 0, 0, 0, 0, 3062, 3035, 3035, 3035, 3035, 3035, 3008, 3008, 3008, 3008, 3008, 3008, 3008, 2982, 2982, 2982, 2956, 2956, 2931, 2931, 2931, 2931, 2906, 2906, 2931, 2931, 2931, 2931, 2931, 2931, 2931, 2956, 0, 0, 0, 0, 0, 0, 0, 0, 0, 0, 0, 0, 0, 0, 0, 0, 0, 0, 0, 0, 0, 0, 0, 0, 0, 0, 0, 0, 0, 2484, 2466, 0, 0, 0, 0, 0, 0, 0, 2721, 2721, 2721, 2721, 2721, 2721, 2721, 2721, 2700, 2700, 2700, 2700, 2700, 2700, 2700, 2679, 2679, 2679, 2679, 2679, 2679, 2679, 2658, 2658, 2658, 2658, 2658, 2637, 2637, 2637, 2637, 2617, 2617, 2617, 2597, 2597, 2597, 2597, 2597, 2597, 2597, 2597, 2597, 2578, 2578, 2578, 2578, 2578, 2578, 2578, 2558, 2558, 2558, 2558, 2558, 2558, 2539, 2539, 2539, 2539, 2539, 2521, 2521, 2521, 2502, 2502, 2502, 2502, 2502, 2502, 2502, 2484, 2484, 2484, 2484, 2484, 2484, 2484, 2484, 2466, 2466, 2466, 2466, 2448, 2448, 2448, 2448, 2448, 2448, 2431, 2431, 2431, 2431, 2414, 2414, 2414, 2414, 2414, 2414, 2414, 2397, 2397, 2397, 2397, 2397, 0, 0, 0, 0, 0, 0, 0, 0, 2089, 2052, 2040, 2040, 2040, 2040, 2040, 0, 0, 0, 0, 0, 0, 0, 0, 0, 0, 0, 0, 0, 0, 0, 0, 2016, 0, 0, 0, 0,
       4291, 4291, 4238, 4238, 4238, 4238, 4291, 4291, 4291, 4291, 4346, 4346, 4346, 4346, 4346, 4346, 4346, 4346, 4346, 4346, 4346, 4346, 4346, 4346, 4346, 4346, 4402, 4402, 4402, 4402, 4402, 4402, 4402, 4402, 4402, 4402, 4402, 4402, 4402, 4459, 4459, 4459, 4459, 4459, 4459, 4459, 4459, 4459, 4402, 4402, 4402, 4346, 4346, 4346, 4346, 4291, 4291, 4291, 4291, 4291, 4291, 4238, 4238, 4238, 4238, 4238, 4238, 4186, 4186, 4136, 4136, 4136, 4136, 4136, 4136, 4136, 4086, 4086, 4136, 4136, 4136, 4086, 4038, 4038, 4038, 4038, 4038, 4038, 4038, 4038, 4038, 4038, 4038, 4038, 3991, 3991, 3991, 3945, 3900, 3856, 3856, 3856, 3856, 3856, 3813, 3813, 3813, 3813, 3813, 3813, 3856, 3856, 3856, 3856, 3856, 3856, 3856, 3856, 3856, 3856, 3856, 3856, 3856, 3856, 3856, 3856, 3856, 3900, 3900, 3900, 3900, 3900, 3900, 3900, 3900, 3900, 3945, 3945, 3945, 3945, 3991, 3991, 3991, 3991, 3991, 3991, 3991, 3991, 3991, 3991, 3991, 3991, 4038, 4038, 4038, 4038, 4038, 4038, 4038, 4038, 4038, 4038, 4038, 4038, 3991, 3991, 3991, 3991, 3991, 3991, 3991, 3991, 3991, 3991, 3991, 3991, 3991, 3991, 3991, 3991, 3991, 3991, 3991, 3991, 3991, 3991, 3945, 3945, 3945, 3945, 3900, 3900, 3900, 3900, 3856, 3856, 3813, 3813, 3771, 0, 0, 0, 0, 0, 0, 0, 0, 0, 3574, 3650, 3690, 3690, 3730, 3730, 3730, 3771, 3730, 3730, 3730, 3730, 0, 0, 0, 0, 0, 0, 0, 0, 0, 0, 0, 0, 0, 0, 0, 0, 0, 0, 0, 0, 0, 0, 0, 0, 0, 0, 0, 0, 0, 0, 0, 0, 0, 0, 0, 0, 0, 0, 0, 0, 0, 0, 0, 0, 0, 0, 0, 0, 0, 0, 0, 0, 0, 0, 0, 0, 0, 0, 0, 0, 0, 0, 0, 0, 0, 0, 0, 0, 0, 0, 0, 0, 0, 0, 0, 0, 0, 0, 0, 0, 0, 0, 0, 0, 0, 0, 0, 0, 0, 0, 0, 0, 0, 0, 0, 0, 0, 0, 0, 0, 0, 0, 0, 0, 0, 0, 0, 0, 0, 0, 0, 0, 0, 0, 0, 0, 3035, 3035, 3035, 3008, 3008, 3008, 3008, 3008, 3008, 3008, 3008, 2982, 2982, 2982, 2982, 2956, 2956, 2956, 2931, 2931, 2931, 2931, 2931, 2931, 2931, 2931, 2931, 2931, 0, 0, 0, 0, 0, 0, 0, 0, 0, 0, 0, 0, 0, 0, 0, 0, 0, 0, 0, 0, 0, 0, 0, 0, 0, 0, 0, 0, 0, 2484, 2484, 2484, 2466, 2466, 0, 0, 0, 0, 0, 0, 0, 2721, 2721, 2721, 2721, 2721, 2721, 2700, 2700, 2700, 2700, 2700, 2700, 2700, 2700, 2700, 2679, 2679, 2679, 2679, 2679, 2679, 2658, 2658, 2658, 2658, 2658, 2637, 2637, 2637, 2637, 2617, 2617, 2617, 2597, 2597, 2597, 2597, 2597, 2597, 2578, 2597, 2597, 2578, 2578, 2578, 2578, 2578, 2578, 2578, 2558, 2558, 2558, 2558, 2558, 2558, 2558, 2539, 2539, 2539, 2539, 2539, 2521, 2521, 2502, 2502, 2502, 2502, 2502, 2502, 2502, 2484, 2484, 2484, 2484, 2484, 2484, 2484, 2484, 2466, 2466, 2466, 2448, 2448, 2448, 2448, 2448, 2448, 2448, 2431, 2431, 2431, 2431, 2431, 2414, 2414, 2414, 2414, 2414, 2397, 2397, 2397, 2397, 2397, 2397, 2397, 2397, 2397, 2414, 2397, 2397, 2397, 2364, 0, 2064, 2089, 2089, 2077, 0, 0, 0, 0, 0, 2255, 2285, 2332, 2348, 2348, 2348, 2348, 2348, 2332, 0, 0, 0, 2255, 2197, 2270, 2255, 2255, 2255,
       4291, 4291, 4291, 4238, 4238, 4238, 4291, 4291, 4291, 4346, 4346, 4346, 4346, 4346, 4346, 4346, 4346, 4346, 4346, 4346, 4346, 4346, 4346, 4346, 4346, 4346, 4346, 4402, 4402, 4402, 4402, 4402, 4402, 4402, 4402, 4402, 4402, 4402, 4402, 4459, 4459, 4459, 4459, 4459, 4459, 4459, 4459, 4402, 4402, 4402, 4402, 4346, 4346, 4346, 4346, 4346, 4291, 4291, 4291, 4291, 4291, 4291, 4238, 4238, 4238, 4238, 4238, 4186, 4186, 4186, 4136, 4136, 4136, 4136, 4136, 4136, 4136, 4136, 4136, 4136, 4086, 4086, 4086, 4038, 4038, 4038, 4038, 4038, 4038, 4038, 4038, 4038, 4038, 3991, 3991, 3991, 3991, 3945, 3900, 3856, 3856, 3856, 3856, 3856, 3856, 3813, 3813, 3813, 3813, 3813, 3856, 3856, 3856, 3856, 3856, 3856, 3856, 3856, 3856, 3856, 3856, 3856, 3856, 3856, 3856, 3856, 3856, 3900, 3900, 3900, 3900, 3900, 3900, 3900, 3900, 3900, 3945, 3945, 3945, 3945, 3945, 3991, 3991, 3991, 3991, 3991, 3991, 3991, 3991, 3991, 3991, 3991, 3991, 4038, 4038, 4038, 4038, 4038, 4038, 4038, 4038, 4038, 4038, 4038, 3991, 3991, 3991, 3991, 3991, 3991, 3991, 3991, 3991, 3991, 3991, 3991, 3991, 3991, 3991, 3991, 3991, 3991, 3991, 3991, 3945, 3945, 3900, 3900, 3900, 3900, 3856, 3856, 3856, 3856, 3856, 3730, 3730, 3730, 3690, 3650, 0, 0, 0, 0, 0, 0, 0, 0, 3465, 3501, 3574, 3650, 3650, 3690, 3730, 3730, 3730, 3730, 3730, 3730, 0, 0, 0, 0, 0, 0, 0, 0, 0, 0, 0, 0, 0, 0, 0, 0, 0, 0, 0, 0, 0, 0, 0, 0, 0, 0, 0, 0, 0, 0, 0, 0, 0, 0, 0, 0, 0, 0, 0, 0, 0, 0, 0, 0, 0, 0, 0, 0, 0, 0, 0, 0, 0, 0, 0, 0, 0, 0, 0, 0, 0, 0, 0, 0, 0, 0, 0, 0, 0, 0, 0, 0, 0, 0, 0, 0, 0, 0, 0, 0, 0, 0, 0, 0, 0, 0, 0, 0, 0, 0, 0, 0, 0, 0, 0, 0, 0, 0, 0, 0, 0, 0, 0, 0, 0, 0, 0, 0, 0, 0, 0, 0, 0, 0, 0, 0, 3008, 3008, 3008, 3008, 3008, 3008, 3008, 3008, 3008, 3008, 3008, 2982, 2982, 2982, 2956, 2956, 2956, 2956, 2931, 2931, 2931, 2931, 2931, 2931, 2931, 0, 0, 0, 0, 0, 0, 0, 0, 0, 0, 0, 0, 0, 0, 0, 0, 0, 0, 0, 0, 0, 0, 2521, 2521, 2539, 0, 0, 0, 0, 0, 0, 2484, 2484, 2484, 2484, 2466, 2466, 0, 0, 0, 0, 0, 0, 0, 0, 2721, 2721, 2721, 2721, 2721, 2700, 2700, 2700, 2700, 2700, 2700, 2700, 2700, 2700, 2679, 2679, 2679, 2679, 2658, 2658, 2658, 2658, 2658, 2658, 2658, 2637, 2637, 2637, 2637, 2637, 2617, 2617, 2617, 2597, 2597, 2597, 2597, 2597, 2578, 2597, 2597, 2578, 2578, 2578, 2578, 2578, 2578, 2558, 2558, 2558, 2558, 2558, 2558, 2558, 2558, 2539, 2539, 2539, 2539, 2539, 2521, 2521, 2502, 2502, 2502, 2502, 2502, 2502, 2484, 2484, 2484, 2484, 2484, 2484, 2484, 2484, 2484, 2466, 2466, 2466, 2448, 2448, 2448, 2448, 2448, 2448, 2448, 2431, 2431, 2431, 2431, 2414, 2414, 2414, 2414, 2414, 2414, 2397, 2397, 2397, 2397, 2397, 2397, 2397, 2397, 2397, 2397, 2397, 2397, 2397, 2397, 2364, 0, 0, 0, 0, 0, 0, 0, 0, 0, 2348, 2348, 2348, 2348, 2348, 2332, 2348, 2332, 2332, 2332, 2332, 2316, 2316, 2316, 2316, 2316, 2316, 2316,
       4291, 4291, 4238, 4238, 4238, 4238, 4238, 4291, 4291, 4291, 4346, 4346, 4346, 4346, 4346, 4346, 4346, 4346, 4346, 4346, 4346, 4346, 4402, 4402, 4346, 4346, 4346, 4402, 4402, 4402, 4402, 4402, 4402, 4402, 4402, 4402, 4402, 4402, 4402, 4402, 4402, 4459, 4459, 4402, 4402, 4402, 4402, 4402, 4402, 4402, 4402, 4402, 4346, 4346, 4346, 4346, 4291, 4346, 4291, 4346, 4291, 4291, 4291, 4291, 4238, 4238, 4238, 4186, 4186, 4186, 4186, 4136, 4136, 4186, 4186, 4136, 4136, 4136, 4136, 4136, 4136, 4086, 4086, 4038, 4038, 4038, 4038, 4038, 4038, 4038, 3991, 3991, 3991, 3991, 3991, 3991, 3991, 3945, 3900, 3900, 3856, 3856, 3856, 3856, 3856, 3813, 3813, 3856, 3856, 3856, 3856, 3856, 3856, 3856, 3856, 3856, 3856, 3856, 3856, 3856, 3856, 3856, 3856, 3856, 3856, 3900, 3900, 3900, 3900, 3900, 3900, 3900, 3900, 3900, 3900, 3900, 3945, 3945, 3945, 3945, 3945, 3991, 3991, 3991, 3991, 3991, 3991, 3991, 3991, 3991, 3991, 3991, 3991, 4038, 4038, 4038, 4038, 4038, 4038, 4038, 4038, 4038, 4038, 4038, 3991, 3991, 3991, 3991, 3991, 3991, 3991, 3945, 3945, 3945, 3991, 3991, 3991, 3991, 3991, 3991, 3991, 3991, 3991, 3945, 3945, 3900, 3900, 3856, 3856, 3856, 3856, 3856, 3771, 3730, 3690, 3650, 3650, 3650, 3650, 3650, 3612, 3612, 0, 0, 0, 0, 0, 0, 3431, 3431, 3431, 3465, 3574, 3650, 3690, 3730, 3730, 3730, 3730, 3730, 0, 0, 0, 0, 0, 0, 0, 0, 0, 0, 0, 0, 0, 0, 0, 0, 0, 0, 0, 0, 0, 0, 0, 0, 0, 0, 0, 0, 0, 0, 0, 0, 0, 0, 0, 0, 0, 0, 0, 0, 0, 0, 0, 0, 0, 0, 0, 0, 0, 0, 0, 0, 0, 0, 0, 0, 0, 0, 0, 0, 0, 0, 0, 0, 0, 0, 0, 0, 0, 0, 0, 0, 0, 0, 0, 0, 0, 0, 0, 0, 0, 0, 0, 0, 0, 0, 0, 0, 0, 0, 0, 0, 0, 0, 0, 0, 0, 0, 0, 0, 0, 0, 0, 0, 0, 0, 0, 0, 0, 0, 0, 0, 0, 0, 0, 0, 0, 3008, 3008, 3008, 3008, 3008, 3008, 3008, 3008, 2982, 2982, 2982, 2982, 2982, 2956, 2956, 2956, 2956, 2956, 2931, 2931, 2931, 2931, 2931, 0, 0, 0, 0, 0, 0, 0, 0, 0, 0, 2578, 2578, 2578, 2578, 2558, 2558, 0, 0, 0, 0, 2597, 2539, 2521, 2521, 2521, 2521, 2539, 2521, 0, 0, 2502, 2502, 2502, 2484, 2484, 2484, 2484, 2484, 0, 0, 0, 0, 0, 0, 0, 0, 2743, 2721, 2721, 2721, 2721, 2700, 2700, 2700, 2700, 2700, 2700, 2700, 2700, 2679, 2679, 2679, 2679, 2679, 2679, 2679, 2658, 2658, 2658, 2658, 2658, 2658, 2658, 2637, 2637, 2637, 2637, 2617, 2617, 2617, 2597, 2597, 2597, 2597, 2578, 2597, 2597, 2578, 2578, 2578, 2578, 2578, 2578, 2558, 2558, 2558, 2558, 2558, 2558, 2558, 2558, 2539, 2539, 2539, 2539, 2521, 2521, 2521, 2502, 2502, 2502, 2484, 2484, 2484, 2484, 2484, 2484, 2484, 2484, 2484, 2484, 2466, 2466, 2466, 2466, 2466, 2466, 2448, 2448, 2448, 2448, 2448, 2448, 2431, 2431, 2431, 2414, 2414, 2414, 2414, 2414, 2397, 2397, 2397, 2397, 2397, 2397, 2397, 2397, 2397, 2397, 2397, 2397, 2397, 2397, 2397, 2380, 2380, 2364, 2364, 2364, 2364, 0, 0, 0, 0, 2348, 2348, 2348, 2348, 2348, 2332, 2332, 2332, 2332, 2332, 2332, 2316, 2316, 2316, 2316, 2316, 2316, 2316, 2300,
       4238, 4238, 4238, 4238, 4238, 4238, 4238, 4238, 4291, 4291, 4291, 4291, 4346, 4346, 4346, 4346, 4346, 4346, 4346, 4346, 4346, 4346, 4402, 4402, 4346, 4346, 4402, 4402, 4402, 4402, 4402, 4402, 4402, 4402, 4402, 4402, 4402, 4402, 4402, 4402, 4402, 4402, 4402, 4402, 4402, 4402, 4402, 4402, 4402, 4402, 4402, 4402, 4346, 4346, 4346, 4346, 4346, 4346, 4346, 4346, 4346, 4291, 4291, 4291, 4238, 4238, 4238, 4238, 4186, 4186, 4186, 4136, 4136, 4186, 4186, 4136, 4136, 4136, 4136, 4136, 4086, 4086, 4086, 4038, 4038, 4038, 4038, 4038, 4038, 4038, 3991, 3991, 3991, 3991, 3991, 3991, 3991, 3945, 3945, 3900, 3900, 3856, 3856, 3856, 3856, 3813, 3813, 3856, 3856, 3856, 3856, 3856, 3856, 3856, 3856, 3856, 3856, 3856, 3856, 3856, 3856, 3856, 3856, 3856, 3856, 3900, 3900, 3900, 3900, 3900, 3900, 3900, 3900, 3900, 3900, 3900, 3945, 3945, 3945, 3945, 3945, 3991, 3991, 3991, 3991, 3991, 3991, 3991, 3991, 3991, 3991, 3991, 3991, 4038, 4038, 4038, 4038, 4038, 4038, 4038, 4038, 4038, 4038, 3991, 3991, 3991, 3991, 3991, 3991, 3991, 3945, 3945, 3945, 3945, 3945, 3991, 3945, 3945, 3991, 3945, 3945, 3900, 3900, 3900, 3856, 3856, 3771, 3771, 3730, 3730, 3690, 3690, 3650, 3650, 3650, 3650, 3650, 3650, 3612, 3612, 3574, 0, 0, 0, 0, 0, 3465, 3397, 3397, 3397, 3397, 3431, 3465, 3574, 3650, 3690, 3690, 3690, 3690, 3730, 0, 0, 0, 0, 0, 0, 0, 0, 0, 0, 0, 0, 0, 0, 0, 0, 0, 0, 0, 0, 0, 0, 0, 0, 0, 0, 0, 0, 0, 0, 0, 0, 0, 0, 0, 0, 0, 0, 0, 0, 0, 0, 0, 0, 0, 0, 0, 0, 0, 0, 0, 0, 0, 0, 0, 0, 0, 0, 0, 0, 0, 0, 0, 0, 0, 0, 0, 0, 0, 0, 0, 0, 0, 0, 0, 0, 0, 0, 0, 0, 0, 0, 0, 0, 0, 0, 0, 0, 0, 0, 0, 0, 0, 0, 0, 0, 0, 0, 0, 0, 0, 0, 0, 0, 0, 0, 0, 0, 0, 0, 2882, 0, 0, 0, 0, 0, 0, 0, 3008, 3008, 3008, 3008, 3008, 3008, 3008, 3008, 3008, 2982, 2982, 2982, 2982, 2956, 2956, 2956, 2956, 2931, 2931, 0, 0, 0, 0, 0, 0, 0, 0, 0, 0, 0, 0, 2578, 2578, 2578, 2578, 2578, 2558, 2558, 2558, 2558, 2558, 2539, 2539, 2539, 2539, 2521, 2521, 2539, 2539, 2521, 2521, 2521, 2502, 2502, 2502, 2484, 2484, 2484, 2484, 2484, 2484, 2484, 0, 0, 0, 0, 0, 2743, 2743, 2721, 2721, 2721, 2721, 2700, 2700, 2700, 2700, 2700, 2700, 2700, 2700, 2679, 2679, 2679, 2679, 2679, 2679, 2679, 2658, 2658, 2658, 2658, 2658, 2658, 2658, 2637, 2637, 2637, 2637, 2617, 2617, 2617, 2617, 2597, 2597, 2597, 2578, 2597, 2597, 2578, 2578, 2578, 2578, 2578, 2578, 2578, 2558, 2558, 2558, 2558, 2558, 2558, 2558, 2539, 2539, 2539, 2539, 2521, 2521, 2521, 2502, 2502, 2484, 2484, 2484, 2484, 2484, 2484, 2484, 2484, 2484, 2484, 2484, 2466, 2466, 2466, 2466, 2466, 2466, 2466, 2448, 2448, 2448, 2448, 2448, 2431, 2431, 2431, 2431, 2414, 2414, 2414, 2414, 2414, 2414, 2397, 2397, 2397, 2397, 2397, 2397, 2380, 2380, 2397, 2397, 2397, 2380, 2380, 2380, 2364, 2364, 2364, 2364, 2348, 2348, 2348, 2348, 2348, 2348, 2348, 2348, 2348, 2332, 2332, 2332, 2332, 2332, 2332, 2316, 2316, 2316, 2316, 2316, 2300, 2300, 2300, 2300,
       4238, 4238, 4238, 4238, 4238, 4238, 4238, 4238, 4291, 4291, 4291, 4291, 4346, 4346, 4346, 4346, 4346, 4346, 4346, 4346, 4346, 4346, 4402, 4402, 4346, 4346, 4402, 4402, 4402, 4402, 4402, 4402, 4402, 4402, 4402, 4402, 4402, 4402, 4402, 4402, 4402, 4402, 4402, 4402, 4402, 4402, 4402, 4402, 4402, 4402, 4402, 4402, 4346, 4346, 4346, 4346, 4346, 4346, 4346, 4346, 4346, 4291, 4291, 4291, 4291, 4238, 4238, 4238, 4186, 4186, 4186, 4186, 4186, 4186, 4186, 4136, 4136, 4136, 4136, 4086, 4086, 4086, 4086, 4038, 4038, 4038, 4038, 4038, 4038, 4038, 3991, 3991, 3991, 3991, 3991, 3991, 3991, 3991, 3945, 3900, 3900, 3856, 3856, 3856, 3856, 3813, 3813, 3856, 3856, 3813, 3813, 3856, 3856, 3856, 3856, 3856, 3856, 3856, 3856, 3856, 3856, 3856, 3856, 3856, 3856, 3900, 3900, 3900, 3900, 3900, 3900, 3900, 3900, 3900, 3900, 3900, 3945, 3945, 3945, 3945, 3945, 3991, 3991, 3991, 3991, 3991, 3991, 3991, 3991, 3991, 3991, 3991, 3991, 4038, 4038, 4038, 4038, 4038, 4038, 4038, 4038, 4038, 4038, 4038, 3991, 3991, 3991, 3991, 3991, 0, 0, 3991, 3771, 3771, 3771, 3771, 3813, 3813, 3813, 3813, 3771, 3730, 3730, 3771, 3730, 3730, 3690, 3690, 3650, 3650, 3650, 3650, 3650, 3612, 3612, 3612, 3612, 3612, 3612, 3574, 0, 0, 0, 0, 0, 0, 3431, 3397, 3397, 3397, 3397, 3397, 3397, 3465, 3537, 3690, 3690, 3690, 3690, 3730, 0, 0, 0, 0, 0, 0, 0, 0, 0, 0, 0, 0, 0, 0, 0, 0, 0, 0, 0, 0, 0, 0, 0, 0, 0, 0, 0, 0, 0, 0, 0, 0, 0, 0, 0, 0, 0, 0, 0, 0, 0, 0, 0, 0, 0, 0, 0, 0, 0, 0, 0, 0, 0, 0, 0, 0, 0, 0, 0, 0, 0, 0, 0, 0, 0, 0, 0, 0, 0, 0, 0, 0, 0, 0, 0, 0, 0, 0, 0, 0, 0, 0, 0, 0, 0, 0, 0, 0, 0, 0, 0, 0, 0, 0, 0, 0, 0, 0, 0, 0, 0, 0, 0, 0, 0, 0, 0, 0, 0, 2858, 2858, 0, 0, 0, 0, 0, 0, 0, 2982, 3008, 3008, 3008, 3008, 3008, 3008, 3008, 3008, 3008, 2982, 2982, 2982, 2956, 2956, 2956, 2956, 2931, 0, 0, 0, 0, 0, 0, 0, 0, 0, 0, 0, 0, 2558, 2578, 2578, 2558, 2558, 2558, 2558, 2558, 2558, 2558, 2539, 2539, 2539, 2539, 2539, 2539, 2521, 2539, 2521, 2521, 2502, 2502, 2502, 2502, 2502, 2484, 2484, 2484, 2484, 2484, 2484, 0, 0, 0, 0, 0, 0, 2743, 2743, 2743, 2721, 2721, 2721, 2721, 2700, 2700, 2700, 2700, 2700, 2700, 2700, 2679, 2679, 2679, 2679, 2679, 2679, 2658, 2658, 2658, 2658, 2658, 2658, 2658, 2658, 2658, 2637, 2637, 2637, 2617, 2617, 2617, 2617, 2597, 2597, 2597, 2578, 2597, 2597, 2578, 2578, 2578, 2578, 2578, 2578, 2578, 2578, 2558, 2558, 2558, 2558, 2558, 2558, 2539, 2539, 2539, 2539, 2521, 2521, 2502, 2502, 2502, 2484, 2484, 2484, 2484, 2484, 2484, 2484, 2484, 2484, 2484, 2484, 2466, 2466, 2466, 2466, 2466, 2466, 2466, 2448, 2448, 2448, 2448, 2448, 2448, 2431, 2431, 2431, 2431, 2414, 2414, 2414, 2414, 2414, 2414, 2397, 2397, 2397, 2397, 2397, 2380, 2380, 2380, 2380, 2380, 2380, 2380, 2364, 2364, 2364, 2364, 2348, 2348, 2348, 2348, 2348, 2348, 2348, 2348, 2332, 2332, 2332, 2332, 2332, 2332, 2316, 2316, 2316, 2316, 2300, 2300, 2300, 2300, 2300, 2300, 2300,
       4238, 4238, 4238, 4238, 4238, 4238, 4238, 4238, 4291, 4291, 4291, 4291, 4346, 4346, 4346, 4346, 4346, 4346, 4346, 4346, 4346, 4346, 4346, 4346, 4402, 4402, 4402, 4402, 4402, 4402, 4402, 4402, 4402, 4402, 4402, 4402, 4402, 4402, 4402, 4402, 4402, 4459, 4459, 4459, 4402, 4402, 4402, 4402, 4402, 4402, 4402, 4402, 4346, 4346, 4346, 4346, 4346, 4346, 4346, 4346, 4346, 4291, 4291, 4291, 4291, 4291, 4238, 4238, 4238, 4186, 4186, 4186, 4186, 4186, 4136, 4136, 4136, 4136, 4136, 4086, 4086, 4086, 4038, 4038, 4038, 4038, 4038, 4038, 4038, 4038, 3991, 3991, 3991, 3991, 3991, 3991, 3991, 3991, 3945, 3900, 3900, 3856, 0, 0, 3856, 3813, 3813, 3813, 3813, 3813, 3813, 3813, 3813, 3856, 3856, 3856, 3856, 3856, 3856, 3856, 3856, 3856, 3856, 3856, 3856, 3900, 3900, 3900, 3900, 3900, 3900, 3900, 3900, 3900, 3900, 3900, 3945, 3945, 3945, 3945, 3945, 3991, 3991, 3991, 3991, 3991, 3991, 3991, 3991, 3991, 3991, 3991, 3991, 4038, 4038, 4038, 4038, 4038, 4038, 4038, 4038, 4038, 4038, 4038, 3991, 3991, 3991, 3991, 3945, 0, 0, 4038, 3650, 3612, 3650, 3650, 3650, 3690, 3690, 3690, 3690, 3650, 3650, 3690, 3650, 3650, 3650, 3650, 3650, 3650, 3612, 3612, 3612, 3574, 3574, 3574, 3574, 3574, 3574, 3537, 0, 0, 0, 0, 0, 0, 3397, 3397, 3397, 3397, 3397, 3397, 3397, 3397, 3465, 3612, 3690, 3690, 3690, 3730, 0, 0, 0, 0, 0, 0, 0, 0, 0, 0, 0, 0, 0, 0, 0, 0, 0, 0, 0, 0, 0, 0, 0, 0, 0, 0, 0, 0, 0, 0, 0, 0, 0, 0, 0, 0, 0, 0, 0, 0, 0, 0, 0, 0, 0, 0, 0, 0, 0, 0, 0, 0, 0, 0, 0, 0, 0, 0, 0, 0, 0, 0, 0, 0, 0, 0, 0, 0, 0, 0, 0, 0, 0, 0, 0, 0, 0, 0, 0, 0, 0, 0, 0, 0, 0, 0, 0, 0, 0, 0, 0, 0, 0, 0, 0, 0, 0, 0, 0, 0, 0, 0, 0, 0, 0, 0, 0, 0, 0, 2834, 2834, 0, 0, 0, 0, 0, 0, 0, 0, 3008, 3008, 3008, 3008, 3008, 3008, 3008, 3008, 3008, 2982, 2982, 2982, 2956, 2956, 2956, 2956, 2931, 0, 0, 0, 0, 0, 0, 0, 0, 0, 0, 0, 0, 2578, 2578, 2578, 2558, 2558, 2558, 2558, 2558, 2558, 2558, 2558, 2539, 2539, 2539, 2539, 2539, 2521, 2521, 2521, 2521, 2502, 2502, 2502, 2484, 2484, 2484, 2484, 2484, 2484, 2484, 2484, 0, 0, 0, 0, 0, 2765, 2743, 2743, 2743, 2743, 2721, 2721, 2721, 2700, 2700, 2700, 2700, 2700, 2700, 2700, 2679, 2679, 2679, 2679, 2658, 2658, 2658, 2658, 2658, 2658, 2658, 2658, 2658, 2658, 2637, 2637, 2637, 2637, 2637, 2617, 2617, 2617, 2617, 2597, 2597, 2597, 2597, 2597, 2578, 2578, 2578, 2578, 2578, 2578, 2578, 2578, 2558, 2558, 2558, 2558, 2558, 2558, 2539, 2539, 2539, 2539, 2521, 2521, 2502, 2502, 2502, 2502, 2502, 2484, 2484, 2484, 2484, 2484, 2484, 2484, 2484, 2484, 2484, 2466, 2466, 2466, 2466, 2466, 2466, 2448, 2448, 2448, 2448, 2448, 2448, 2431, 2431, 2431, 2431, 2414, 2414, 2414, 2414, 2414, 2414, 2397, 2397, 2397, 2397, 2397, 2380, 2380, 2380, 2380, 2380, 2380, 2380, 2364, 2364, 2364, 2364, 2348, 2348, 2348, 2348, 2348, 2348, 2348, 2348, 2332, 2332, 2332, 2332, 2316, 2316, 2316, 2316, 2316, 2300, 2300, 2300, 2300, 2300, 2300, 2300, 2300,
       4238, 4291, 4238, 4238, 4238, 4238, 4238, 4238, 4291, 4291, 4291, 4291, 4346, 4346, 4346, 4346, 4346, 4346, 4346, 4346, 4346, 4346, 4346, 4346, 4402, 4402, 4402, 4402, 4402, 4402, 4402, 4402, 4402, 4402, 4402, 4402, 4402, 4402, 4402, 4402, 4459, 4459, 4459, 4459, 4402, 4402, 4402, 4402, 4402, 4402, 4402, 4402, 4346, 4346, 4346, 4346, 4346, 4346, 4346, 4346, 4346, 4291, 4291, 4291, 4291, 4291, 4238, 4238, 4238, 4186, 4186, 4186, 4186, 4186, 4186, 4136, 4136, 4136, 4136, 4136, 4086, 4086, 4038, 4038, 4038, 4038, 4038, 4038, 4038, 4038, 3991, 3991, 3991, 3991, 3991, 3991, 3991, 3991, 3945, 0, 0, 0, 0, 0, 3813, 3813, 3813, 3813, 3813, 3813, 3813, 3813, 3813, 3856, 3856, 3856, 3856, 3856, 3856, 3856, 3856, 3856, 3856, 3856, 3856, 3900, 3900, 3900, 3900, 3900, 3900, 3900, 3900, 3900, 3900, 3900, 3945, 3945, 3945, 3945, 3945, 3945, 3945, 3991, 3991, 3991, 3991, 3991, 3991, 3991, 3991, 3991, 3991, 3991, 4038, 4038, 4038, 4038, 4038, 4038, 4038, 4038, 4038, 4038, 3991, 3991, 3991, 3945, 3900, 0, 0, 3771, 3612, 3612, 3612, 3612, 3612, 3612, 3650, 3650, 3650, 3650, 3650, 3650, 3650, 3650, 3650, 3612, 3612, 3612, 3612, 3574, 3574, 3574, 3537, 3537, 3537, 3537, 3537, 3537, 0, 0, 0, 0, 0, 0, 0, 3397, 3363, 3363, 3363, 3363, 3363, 3397, 3397, 3501, 3650, 3690, 3690, 3730, 3730, 3730, 0, 0, 0, 0, 0, 0, 0, 0, 0, 0, 0, 0, 0, 0, 0, 0, 0, 0, 0, 0, 0, 0, 0, 0, 0, 0, 0, 0, 0, 0, 0, 0, 0, 0, 0, 0, 0, 0, 0, 0, 0, 0, 0, 0, 0, 0, 0, 0, 0, 0, 0, 0, 0, 0, 0, 0, 0, 0, 0, 0, 0, 0, 0, 0, 0, 0, 0, 0, 0, 0, 0, 0, 0, 0, 0, 0, 0, 0, 0, 0, 0, 0, 0, 0, 0, 0, 0, 0, 0, 0, 0, 0, 0, 0, 0, 0, 0, 0, 0, 0, 0, 0, 0, 0, 0, 2834, 2834, 2834, 2834, 0, 0, 0, 0, 0, 0, 0, 0, 3008, 3008, 3008, 3008, 3008, 3008, 3008, 3008, 3008, 2982, 2982, 2982, 2956, 2956, 2956, 2956, 2956, 2931, 0, 0, 0, 0, 0, 0, 0, 0, 0, 2558, 2578, 2578, 2578, 2578, 2578, 2558, 2558, 2558, 2558, 2558, 2558, 2558, 2539, 2539, 2539, 2539, 2539, 2521, 2521, 2521, 2502, 2502, 2502, 2502, 2484, 2484, 2484, 2558, 0, 0, 2484, 2466, 0, 0, 0, 0, 0, 2765, 2743, 2743, 2743, 2743, 2721, 2721, 2721, 2700, 2700, 2700, 2700, 2700, 2679, 2679, 2679, 2679, 2679, 2679, 2679, 2658, 2658, 2658, 2658, 2658, 2658, 2658, 2658, 2658, 2637, 2637, 2637, 2637, 2637, 2637, 2617, 2617, 2617, 2617, 2597, 2597, 2597, 2597, 2597, 2597, 2597, 2578, 2578, 2578, 2578, 2558, 2558, 2558, 2558, 2558, 2558, 2558, 2558, 2539, 2539, 2539, 2539, 2521, 2521, 2502, 2502, 2502, 2502, 2502, 2502, 2502, 2484, 2484, 2484, 2484, 2484, 2484, 2484, 2466, 2466, 2466, 2466, 2466, 2466, 2448, 2448, 2448, 2448, 2448, 2448, 2431, 2431, 2431, 2431, 2414, 2414, 2414, 2414, 2414, 2414, 2414, 2397, 2397, 2397, 2397, 2380, 2380, 2380, 2380, 2380, 2380, 2364, 2364, 2364, 2364, 2364, 2364, 2348, 2348, 2348, 2348, 2348, 2348, 2348, 2332, 2332, 2332, 2332, 2332, 2316, 2316, 2316, 2316, 2300, 2300, 2300, 2300, 2300, 2300, 2300, 2300,
       4291, 4291, 4238, 4238, 4238, 4238, 4238, 4238, 4291, 4291, 4291, 4291, 4291, 4346, 4346, 4346, 4346, 4346, 4346, 4346, 4346, 4346, 4346, 4346, 4402, 4402, 4402, 4402, 4402, 4402, 4402, 4402, 4402, 4402, 4402, 4402, 4402, 4402, 4402, 4402, 4402, 4402, 4402, 4402, 4402, 4402, 4402, 4402, 4402, 4402, 4402, 4402, 4346, 4346, 4346, 4346, 4291, 4291, 4346, 4346, 4291, 4291, 4291, 4291, 4238, 4238, 4238, 4238, 4186, 4186, 4186, 4186, 4186, 4186, 4186, 4136, 4136, 4136, 4136, 4086, 4086, 4086, 4038, 4038, 4038, 4038, 4038, 4038, 4038, 4038, 3991, 3991, 3991, 3991, 3991, 3991, 3991, 3991, 3945, 0, 0, 0, 0, 0, 0, 0, 0, 0, 0, 3813, 3813, 3813, 3813, 3813, 3813, 3856, 3856, 3856, 3856, 3856, 3856, 3856, 3856, 3856, 3856, 3856, 3856, 3856, 3856, 3900, 3900, 3900, 3900, 3900, 3900, 3900, 3945, 3945, 3945, 3945, 3945, 3945, 3945, 3991, 3991, 3991, 3991, 3991, 3991, 3991, 3991, 3991, 3991, 3991, 3991, 3991, 4038, 4038, 4038, 4038, 4038, 4038, 4038, 4038, 4038, 3991, 3991, 3945, 3813, 3690, 3612, 3612, 3612, 3574, 3574, 3612, 3612, 3612, 3612, 3612, 3612, 3612, 3612, 3612, 3650, 3650, 3612, 3612, 3612, 3612, 3612, 3574, 3574, 3574, 3537, 3537, 3537, 3537, 3537, 3537, 0, 0, 0, 0, 0, 0, 0, 3363, 3363, 3363, 3363, 3363, 3363, 3397, 3397, 3465, 3612, 3690, 3730, 3730, 3730, 3730, 3730, 0, 0, 0, 0, 0, 0, 0, 0, 0, 0, 0, 0, 0, 0, 0, 0, 0, 0, 0, 0, 0, 0, 0, 0, 0, 0, 0, 0, 0, 0, 0, 0, 0, 0, 0, 0, 0, 0, 0, 0, 0, 0, 0, 0, 0, 0, 0, 0, 0, 0, 0, 0, 0, 0, 0, 0, 0, 0, 0, 0, 0, 0, 0, 0, 0, 0, 0, 0, 0, 0, 0, 0, 0, 0, 0, 0, 0, 0, 0, 0, 0, 0, 0, 0, 0, 0, 0, 0, 0, 0, 0, 0, 0, 0, 0, 0, 0, 0, 0, 0, 0, 0, 0, 0, 2834, 2834, 2811, 2811, 2811, 0, 0, 0, 0, 0, 0, 0, 3008, 3008, 3008, 3008, 3008, 3008, 3008, 3008, 3008, 2982, 2982, 2982, 2982, 2956, 2956, 2956, 2956, 2956, 0, 0, 0, 0, 0, 0, 0, 0, 2558, 2558, 2578, 2578, 2578, 2578, 2578, 2558, 2558, 2558, 2558, 2558, 2558, 2558, 2539, 2539, 2539, 2539, 2539, 2521, 2521, 2521, 2502, 2502, 2484, 2484, 2484, 2484, 2484, 0, 0, 0, 2521, 2466, 0, 0, 0, 0, 2743, 2743, 2743, 2743, 2743, 2743, 2721, 2721, 2721, 2700, 2700, 2700, 2700, 2679, 2679, 2679, 2679, 2679, 2658, 2658, 2658, 2658, 2658, 2658, 2658, 2658, 2658, 2658, 2658, 2658, 2637, 2637, 2637, 2637, 2637, 2637, 2637, 2637, 2637, 2617, 2617, 2617, 2617, 2617, 2597, 2597, 2597, 2578, 2578, 2578, 2578, 2558, 2558, 2558, 2558, 2558, 2558, 2558, 2558, 2539, 2539, 2539, 2539, 2521, 2521, 2502, 2502, 2502, 2502, 2502, 2502, 2502, 2484, 2484, 2484, 2484, 2484, 2484, 2466, 2466, 2466, 2466, 2466, 2466, 2466, 2448, 2448, 2448, 2448, 2448, 2448, 2431, 2431, 2431, 2431, 2431, 2414, 2414, 2414, 2414, 2414, 2397, 2397, 2397, 2397, 2397, 2380, 2380, 2380, 2380, 2380, 2380, 2364, 2364, 2364, 2364, 2364, 2364, 2364, 2348, 2348, 2348, 2348, 2348, 2348, 2332, 2332, 2332, 2332, 2332, 2316, 2316, 2316, 2316, 2300, 2300, 2300, 2300, 2300, 2300, 2300, 2300,
       4291, 4291, 4238, 4238, 4238, 4238, 4238, 4238, 4291, 4291, 4291, 4291, 4291, 4291, 4291, 4291, 4291, 4346, 4346, 4346, 4346, 4346, 4346, 4346, 4402, 4402, 4402, 4402, 4402, 4402, 4402, 4402, 4402, 4402, 4402, 4402, 4402, 4402, 4402, 4402, 4402, 4402, 4402, 4402, 4402, 4402, 4402, 4402, 4402, 4402, 4402, 4402, 4346, 4346, 4346, 4346, 4346, 4291, 4291, 4291, 4291, 4291, 4291, 4238, 4238, 4238, 4238, 4186, 4186, 4186, 4186, 4186, 4186, 4186, 4186, 4136, 4136, 4136, 4136, 4086, 4086, 4086, 4086, 4038, 4038, 4038, 4038, 4038, 4038, 4038, 3991, 3991, 3991, 3991, 3991, 3991, 3991, 3945, 3945, 0, 0, 0, 0, 0, 0, 0, 0, 0, 0, 0, 0, 3813, 3813, 3813, 3813, 3856, 3856, 3856, 3856, 3856, 3856, 3856, 3856, 3856, 3856, 3856, 3856, 3856, 3856, 3900, 3900, 3900, 3900, 3900, 3900, 3900, 3900, 3945, 3945, 3945, 3945, 3945, 3945, 3991, 3991, 3991, 3991, 3991, 3991, 3991, 3991, 3991, 3991, 3991, 4038, 4038, 4038, 4038, 4038, 4038, 4038, 4038, 4038, 4038, 4038, 3991, 3991, 0, 0, 3650, 3612, 3574, 3574, 3574, 3574, 3574, 3574, 3612, 3612, 3612, 3612, 3612, 3612, 3612, 3612, 3612, 3612, 3612, 3612, 3612, 3574, 3574, 3574, 3537, 3537, 3537, 3537, 3537, 3501, 3501, 0, 0, 0, 0, 0, 0, 3363, 3363, 3363, 3363, 3363, 3363, 3397, 3397, 3397, 3465, 3612, 3690, 3690, 3730, 3730, 3730, 3730, 3690, 0, 0, 0, 0, 0, 0, 0, 0, 0, 0, 0, 0, 0, 0, 0, 0, 0, 0, 0, 0, 0, 0, 0, 0, 0, 0, 0, 0, 0, 0, 0, 0, 0, 0, 0, 0, 0, 0, 0, 0, 0, 0, 0, 0, 0, 0, 0, 0, 0, 0, 0, 0, 0, 0, 0, 0, 0, 0, 0, 0, 0, 0, 0, 0, 0, 0, 0, 0, 0, 0, 0, 0, 0, 0, 0, 0, 0, 0, 0, 0, 0, 0, 0, 0, 0, 0, 0, 0, 0, 0, 0, 0, 0, 0, 0, 0, 0, 0, 0, 0, 0, 2834, 2834, 2834, 2811, 2811, 2811, 2811, 2834, 2858, 2858, 2858, 2882, 2906, 2956, 3008, 3008, 3008, 3008, 3008, 3008, 3008, 3008, 2982, 2982, 2982, 2982, 2982, 2956, 2956, 2956, 2956, 2956, 0, 0, 0, 0, 0, 0, 0, 2558, 2558, 2558, 2558, 2578, 2578, 2578, 2558, 2558, 2558, 2558, 2558, 2558, 2558, 2558, 2539, 2539, 2539, 2539, 2521, 2521, 2521, 2502, 2502, 2484, 2484, 2466, 2466, 2484, 2466, 2466, 0, 0, 0, 0, 0, 0, 0, 0, 2743, 2743, 2743, 2743, 2743, 2721, 2721, 2721, 2721, 2700, 2700, 2700, 2700, 2679, 2679, 2679, 2679, 2679, 2658, 2658, 2658, 2658, 2658, 2658, 2658, 2658, 2658, 2658, 2658, 2658, 2637, 2637, 2637, 2637, 2637, 2637, 2637, 2637, 2637, 2637, 2637, 2617, 2617, 2617, 2597, 2597, 2597, 2578, 2578, 2578, 2578, 2578, 2578, 2578, 2658, 2700, 2578, 2558, 2558, 0, 0, 0, 0, 2539, 2521, 2502, 2502, 2502, 2502, 2502, 2502, 2502, 2484, 2484, 2484, 2484, 2484, 2484, 2466, 2466, 2466, 2466, 2466, 2466, 2466, 2466, 2448, 2448, 2448, 2448, 2448, 2431, 2431, 2431, 2431, 2431, 2414, 2414, 2414, 2414, 2414, 2414, 2397, 2397, 2397, 2397, 2380, 2380, 2380, 2380, 2380, 2364, 2364, 2364, 2364, 2364, 2364, 2364, 2364, 2364, 2348, 2348, 2348, 2348, 2348, 2348, 2332, 2332, 2332, 2332, 2316, 2316, 2316, 2316, 2300, 2300, 2300, 2300, 2300, 2300, 2300, 2300,
       4238, 4238, 4238, 4238, 4238, 4238, 4238, 4238, 4238, 4291, 4291, 4291, 4291, 4291, 4291, 4346, 4346, 4346, 4346, 4346, 4346, 4346, 4346, 4346, 4402, 4402, 4402, 4402, 4402, 4402, 4402, 4402, 4402, 4402, 4402, 4402, 4402, 4402, 4402, 4402, 4402, 4402, 4402, 4402, 4402, 4402, 4402, 4402, 4402, 4402, 4402, 4402, 4346, 4346, 4346, 4346, 4346, 4291, 4291, 4291, 4291, 4238, 4238, 4238, 4238, 4238, 4238, 4186, 4186, 4186, 4186, 4186, 4186, 4186, 4186, 4136, 4136, 4136, 4136, 4086, 4086, 4086, 4086, 4038, 4038, 4038, 4038, 4038, 4038, 4038, 3991, 3991, 3991, 3991, 3991, 3991, 3945, 3945, 3856, 0, 0, 2064, 2064, 0, 0, 0, 0, 0, 0, 0, 0, 0, 3813, 3813, 3813, 3856, 3856, 3856, 3856, 3856, 3856, 3856, 3856, 3856, 3856, 3856, 3856, 3856, 3856, 3856, 3856, 3900, 3900, 3900, 3900, 3900, 3945, 3945, 3945, 3945, 3945, 3945, 3945, 3991, 3991, 3991, 3991, 3991, 3991, 3991, 3991, 3991, 3991, 3991, 4038, 4038, 4038, 4038, 4038, 4038, 4038, 4038, 4038, 4038, 4038, 3991, 3945, 0, 0, 3612, 3574, 3574, 3574, 3574, 3574, 3574, 3574, 3574, 3574, 3574, 3574, 3574, 3574, 3612, 3612, 3612, 3574, 3574, 3574, 3574, 3574, 3574, 3537, 3537, 3537, 3501, 3501, 3501, 3501, 3501, 0, 0, 0, 0, 0, 0, 3363, 3363, 3363, 3363, 3363, 3363, 3397, 3397, 3397, 3431, 3690, 0, 0, 3730, 3730, 3730, 3690, 3690, 0, 0, 0, 0, 0, 0, 0, 0, 0, 0, 0, 0, 0, 0, 0, 0, 0, 0, 0, 0, 0, 0, 0, 0, 0, 0, 0, 0, 0, 0, 0, 0, 0, 0, 0, 0, 0, 0, 0, 0, 0, 0, 0, 0, 0, 0, 0, 0, 0, 0, 0, 0, 0, 0, 0, 0, 0, 0, 0, 0, 0, 0, 0, 0, 0, 0, 0, 0, 0, 0, 0, 0, 0, 0, 0, 0, 0, 0, 0, 0, 0, 0, 0, 0, 0, 0, 0, 0, 0, 0, 0, 0, 0, 0, 0, 0, 0, 0, 2811, 2811, 2834, 2834, 2834, 2811, 2811, 2811, 2811, 2811, 0, 0, 0, 2858, 2906, 2931, 2956, 3008, 3008, 3008, 3008, 3008, 3008, 3008, 3008, 2982, 2982, 2982, 2982, 2982, 2982, 2956, 2956, 2956, 2956, 0, 0, 0, 0, 0, 0, 0, 2558, 2558, 2558, 2558, 2558, 2578, 2558, 2558, 2558, 2558, 2539, 2539, 2539, 2558, 2539, 2539, 2521, 2521, 2521, 2521, 2521, 2521, 2502, 2502, 2484, 2484, 2466, 2466, 2466, 2466, 0, 0, 0, 0, 0, 0, 0, 0, 2765, 2743, 2743, 2743, 2743, 2743, 2721, 2721, 2721, 2721, 2700, 2700, 2700, 2679, 2679, 2679, 2679, 2679, 2658, 2679, 2679, 2679, 2658, 2658, 2658, 2658, 2658, 2658, 2658, 2658, 2658, 2637, 2637, 2637, 2658, 2658, 2637, 2637, 2637, 2637, 2637, 2637, 2617, 2617, 2617, 2597, 2597, 2597, 2597, 2597, 2597, 2597, 2578, 2578, 2597, 0, 0, 2637, 2558, 0, 0, 0, 0, 0, 2539, 2521, 2502, 2502, 2502, 2502, 2502, 2502, 2502, 2502, 2484, 2484, 2484, 2484, 2484, 2484, 2466, 2466, 2466, 2466, 2466, 2466, 2466, 2466, 2466, 2448, 2448, 2448, 2448, 2431, 2431, 2431, 2431, 2414, 2414, 2414, 2414, 2414, 2414, 2397, 2397, 2397, 2397, 2380, 2380, 2380, 2380, 2380, 2364, 2364, 2364, 2364, 2364, 2364, 2364, 2364, 2364, 2348, 2348, 2348, 2348, 2348, 2348, 2332, 2332, 2332, 2332, 2316, 2316, 2316, 2316, 2300, 2300, 2300, 2300, 2300, 2300, 2300, 2300 ]
